0.627678 0.32353 0.472064
1.11013 0.326049 0.546066
0.656641 0.280181 0.253384
0.628963 0.259578 0.215721
0.121284 0.310828 0.111682
0.633449 1.088 0.307762
0.0744924 0.256014 0.0854832
0.388967 0.553218 0.372572
0.808962 0.312416 0.336516
1.50297 0.338871 0.467943
0.596957 0.290514 0.263438
0.941268 0.301862 0.481976
0.796731 0.297817 0.476212
0.131866 0.318408 0.112384
0.0988477 0.293134 0.104005
0.615921 0.38476 0.610411
0.62629 0.260765 0.214986
0.36503 1.33929 1.89585
0.199758 0.260861 0.162104
0.202815 0.247599 0.168873
0.194372 0.275759 0.153923
-0.0255027 0.195698 0.115981
1.53557 1.70191 0.724533
0.786772 0.435912 0.72901
0.496241 0.270576 0.475512
0.397286 1.60785 2.18061
0.392957 1.59608 2.16192
0.00192682 1.62665 2.34925
0.457201 0.328193 0.488845
0.00165758 1.65172 2.38726
-0.23078 0.514187 0.287607
0.343773 0.329893 0.300603
0.342339 0.336026 0.29823
-0.231028 0.51473 0.288003
0.803313 0.469375 1.22185
0.716797 1.17901 2.25653
0.506714 0.319705 0.592982
0.427146 0.834293 0.320734
0.0164443 0.2133 0.109093
0.415607 0.816873 0.312932
1.24293 0.474767 0.612408
0.45071 0.181389 0.249599
0.758967 0.421924 0.677516
0.991816 0.304665 0.422361
1.08184 0.297072 0.481648
0.817947 0.274264 0.293885
0.621846 0.366963 0.759188
0.612232 0.311033 0.735951
0.624155 0.365252 0.761607
0.86452 0.317185 0.632268
0.767452 0.306593 0.604663
0.842163 0.287769 0.633515
0.719424 0.314038 0.607276
0.0293188 0.209524 0.113849
0.15617 0.340447 0.161088
0.263024 0.258613 0.104891
0.136636 0.306149 0.0995098
0.149833 0.320771 0.115669
0.483177 0.222673 0.136106
0.29221 0.248063 0.109141
0.307638 0.300816 0.157655
0.133682 0.295839 0.0918874
0.1052 0.295462 0.0928175
0.567239 0.342869 0.64518
0.680595 0.379823 0.749023
0.184264 0.369361 0.123088
0.167937 0.367036 0.12723
0.0758478 0.262962 0.0846915
1.13736 0.304371 0.500087
0.117404 0.28389 0.084318
0.0769302 0.294004 0.101485
0.928783 0.509911 1.17161
0.989907 0.272963 0.349376
0.949925 0.310538 0.506856
0.0946875 0.268406 0.0846888
0.603794 0.242123 0.209792
0.330383 0.336209 0.164528
0.205012 0.330835 0.129604
0.3807 0.232989 0.122562
0.158914 0.320654 0.0909105
0.949752 0.307182 0.391605
0.797444 0.358771 0.630432
0.755681 0.306089 0.614776
0.634236 0.316844 0.757006
0.618495 0.336881 0.778826
1.02004 0.293525 0.432877
-0.282127 -0.126618 0.445309
0.0727213 0.481228 0.384772
-0.132116 -0.313016 0.918992
-0.0978456 -0.327399 0.818727
-0.241999 -0.0464359 0.593085
-0.298602 -0.165476 0.382432
-0.281024 0.0730082 0.518677
-0.215486 0.100128 0.697756
-0.273565 0.443992 0.411814
-0.286096 -0.0744941 0.439412
-0.00237732 0.726393 1.15799
-0.217482 0.222308 0.809311
-0.109452 -0.263037 0.932055
-0.0851609 -0.25361 1.28017
-0.184606 0.894095 1.29534
-0.159443 0.68625 1.07009
-0.0996155 0.615356 0.755329
0.71979 0.143494 0.577202
-0.254068 -0.157776 0.353709
0.757339 0.246048 0.621498
0.631164 0.056054 0.368308
0.616964 -0.00511775 0.356561
0.66564 0.00161318 0.550774
0.10652 0.72091 1.55186
-0.164197 0.610284 0.740978
-0.0627217 0.494 0.555252
-0.247978 0.258218 0.497318
-0.258328 0.251009 0.563112
-0.135888 -0.269724 1.101
-0.295642 -0.0773368 0.454735
-0.28222 -0.0788659 0.526239
-0.279499 -0.0723994 0.47681
-0.343098 -0.0934555 0.415538
-0.30979 -0.0823433 0.418391
-0.310748 -0.169949 0.384507
-0.268781 -0.117702 0.531576
-0.226106 -0.167137 0.422186
-0.219056 -0.193617 0.517191
-0.295237 0.078801 0.521552
-0.333242 0.0502254 0.466872
-0.239191 -0.035291 0.640051
-0.075264 0.491973 0.372799
0.773414 0.173208 0.580431
0.645243 0.12854 0.503018
0.8433 0.164664 0.676027
0.652949 0.150751 0.542954
-0.0465895 -0.286381 1.28681
-0.0604679 0.469244 0.525916
-0.140376 -0.327602 0.966492
-0.204071 0.189057 0.696828
-0.0700546 0.452906 0.55361
-0.0172673 -0.389263 0.941123
-0.272411 -0.123826 0.381513
0.743064 0.21007 0.614265
0.643094 0.0376947 0.34967
0.613282 0.0215207 0.322481
-0.147977 0.727852 1.29076
0.0025049 0.682095 0.839422
-0.0793828 0.5197 0.700963
-0.27915 0.233095 0.502571
-0.174504 0.493222 0.757681
-0.220606 0.220751 0.647683
-0.226468 0.196354 0.691551
-0.218788 0.250857 0.635544
-0.0766558 -0.291867 1.21335
-0.0723758 -0.333175 0.925225
-0.103903 -0.318177 0.933123
-0.280797 -0.0732082 0.479464
-0.23119 -0.171003 0.431675
-0.250156 -0.12414 0.325558
-0.310146 -0.169712 0.383302
-0.315066 -0.189362 1.19687
-0.31497 -0.0185851 0.491096
-0.337042 -0.0581824 0.464141
-0.219007 0.100148 0.685692
-0.199077 0.0358423 0.688351
-0.239226 -0.0792505 0.63426
-0.257183 0.012659 0.593246
-0.150246 0.726494 0.999462
-0.0393415 -0.295133 0.79906
-0.0601428 -0.306296 0.829235
-0.162268 0.343967 0.4259
-0.237714 -0.0671687 0.643934
-0.277745 -0.12693 0.389506
0.591512 -0.0060117 0.448103
0.799584 0.17431 0.602242
-0.31432 -0.111544 0.392145
-0.305578 -0.110922 0.371628
-0.349293 -0.123958 0.405821
0.848375 -0.0740624 0.54768
0.866161 -0.0772607 0.564204
-0.0814425 0.602495 0.716984
0.65657 0.387131 0.872026
0.0909961 -0.501017 1.38944
0.519763 0.366828 0.585809
0.765027 0.250747 0.628009
0.688927 0.195926 0.570531
0.716443 0.138762 0.558473
0.634375 0.0371112 0.344813
0.700955 0.0866386 0.647091
0.692995 0.122222 0.554689
-0.112146 0.674369 1.14423
0.00315837 0.791337 0.970108
-0.173019 0.793265 1.00882
-0.0756405 0.495761 0.663581
0.206642 0.50799 0.583071
0.210674 0.865841 1.16083
-0.248126 0.287072 0.955536
-0.218022 0.277216 0.632825
-0.334962 0.470897 1.31196
0.0099548 -0.300191 1.32724
-0.102615 -0.246896 1.15153
-0.106293 -0.319949 0.936909
-0.270491 -0.0755608 0.503572
-0.332028 -0.0894868 0.386716
-0.250787 -0.141022 0.354874
-0.351263 -0.180379 0.405364
-0.245611 -0.0823243 0.614608
-0.240583 -0.107794 0.60681
-0.224321 -0.272379 0.784026
-0.217054 -0.190207 0.509143
-0.265556 0.104636 0.574013
-0.210081 -0.0341555 0.689
-0.230239 -0.0685088 0.70314
-0.255808 -0.0397835 0.689056
-0.246015 -0.04768 0.607676
-0.234239 0.0169652 0.637472
-0.338233 0.0594138 0.475029
-0.256214 -0.147189 0.485627
0.0234377 0.426737 0.351114
0.768294 0.185151 0.632906
-0.252901 -0.144737 0.393605
0.714556 -0.0127655 0.414426
-0.244756 0.561109 0.928663
-0.202289 0.0335714 0.705914
-0.219534 0.0322144 0.691219
-0.182046 0.412177 0.529362
0.614929 0.154643 0.468321
-0.0884385 0.746006 1.39118
0.563126 -0.0042956 0.428193
0.835458 0.223939 0.651493
0.674886 -0.0179729 0.525699
-0.227847 -0.1682 0.506629
-0.0507647 -0.286089 0.789298
-0.218452 0.100391 0.690799
-0.262929 0.751867 1.47396
-0.311274 -0.157653 0.475394
0.719488 0.232982 0.592443
0.736441 0.209239 0.608384
0.809384 0.174577 0.610017
0.680227 0.0339864 0.402971
0.831343 -0.0287815 1.61075
0.768709 0.13283 0.615767
0.693476 0.0278375 0.580485
0.00371247 0.731405 1.29976
0.0673883 1.29288 3.41478
-0.192473 0.239862 0.729629
-0.17772 0.397329 0.332304
-0.114248 0.437391 0.486468
-0.327153 -0.12363 0.537383
-0.280213 -0.081874 0.528936
-0.406762 -0.114886 0.470915
-0.319661 -0.140534 0.372497
-0.230188 -0.156516 0.494648
-0.255364 -0.0995437 0.593255
-0.224749 -0.288593 0.823078
-0.228504 -0.175994 0.476705
-0.213719 -0.17747 0.45431
-0.275148 -0.0338455 0.511028
-0.203279 -0.0241028 0.718856
-0.410549 0.0194436 1.22753
-0.292087 -0.000456125 0.559258
0.149491 0.498362 0.516957
0.00532413 0.78246 0.955064
0.750203 0.0964222 0.636052
0.645049 0.198353 0.338767
0.0206235 0.377056 0.310813
0.205315 0.827212 1.11561
-0.15692 0.603267 1.07698
-0.386223 0.347298 0.427245
-0.30032 -0.0888868 0.381657
0.630512 0.381252 0.563756
-0.102928 0.413613 0.557069
-0.282123 -0.0483013 0.484692
-0.292642 -0.0791701 0.500521
-0.108599 0.614331 1.04207
0.679462 0.0414157 0.566136
-0.161036 0.395447 0.404679
-0.186834 0.442529 0.592539
-0.252113 0.422512 0.374355
0.0239856 -0.367306 1.27205
-0.0382892 -0.262569 1.122
-0.274943 -0.127096 0.386076
0.687598 -0.00788005 0.575276
-0.254924 0.00415394 0.612248
0.889406 -0.0269856 1.30925
-0.245721 -0.188266 0.523866
-0.0818448 0.713259 0.881212
0.563211 -0.0354886 0.329203
-0.126239 0.819878 1.04553
-0.160818 0.412138 0.362824
-0.188672 0.703767 0.920975
0.699028 0.215113 0.403267
0.605013 0.0313103 0.358535
-0.216011 0.250677 0.630016
-0.0679593 0.517138 0.581448
-0.169238 0.480965 0.739446
-0.221607 -0.284514 0.812331
-0.225684 0.384515 0.379934
-0.253979 0.437944 0.466246
-0.280275 0.0154778 0.839304
-0.243651 0.0107219 0.659399
0.0743254 0.583446 1.12172
-0.00842335 -0.297426 1.09699
0.640832 -0.0133602 0.3731
0.618375 0.120014 0.804765
0.627579 0.200623 0.413904
-0.205115 0.0320125 0.725581
-0.223907 -0.0374338 0.718405
0.106034 0.466859 0.376226
0.651365 0.0231406 0.353703
0.757434 0.110466 0.499947
0.611754 0.0118174 0.506336
-0.254435 -0.051236 0.629808
-0.0954737 -0.217231 0.979295
-0.353121 0.203276 0.427536
0.583396 0.336856 0.727218
0.571058 -0.0125622 0.359419
-0.15233 0.808226 1.21586
-0.430341 -0.25096 1.66907
-0.254897 -0.0999209 0.596492
-0.197153 0.120327 0.705864
-0.27269 0.383553 0.365398
0.806611 0.313706 0.531972
0.0746332 0.765878 1.64679
-0.155275 0.649065 0.995806
-0.26897 -0.0800489 0.50625
0.0773131 -0.564878 1.98025
0.0339262 0.405643 0.719813
0.0378355 0.829037 1.47231
-0.435754 0.364158 0.495605
-0.248222 -0.0394856 0.614197
0.187648 -0.554892 1.94569
1.03493 0.550088 1.89129
-0.339396 0.478706 1.34406
-0.2703 -0.121156 0.418336
0.610319 0.229437 0.350479
-0.285071 -0.030234 0.542534
0.780717 -0.030851 0.715924
-0.284804 0.0160287 0.54166
0.665918 0.400126 0.592574
-0.284 -0.116168 0.444554
0.0105135 -0.259913 1.15641
0.773588 -0.0235359 0.604449
-0.178451 0.520798 0.802451
0.911282 0.242438 0.715952
0.708259 0.0348524 0.59163
-0.245327 0.332096 0.336826
-0.243877 0.319794 0.345423
-0.251341 -0.155833 0.526511
-0.316868 -0.073921 0.516349
0.575736 -0.0451151 0.336906
-0.240079 0.367776 0.419257
-0.287791 0.428389 0.443656
-0.203562 0.903513 1.25968
-0.250447 0.0848495 0.627858
-0.257058 -0.135045 0.398644
-0.0812732 -0.251329 1.74163
-0.130313 0.469673 0.462663
0.023054 0.418806 0.347152
0.750256 -0.0634476 0.647909
0.606373 0.022551 0.330547
0.152962 0.537182 0.564554
-0.00908977 0.671221 0.872523
-0.00960144 -0.250792 0.889411
0.590923 0.365266 0.752751
-0.248134 -0.0259015 0.610209
0.617278 0.218167 0.406592
-0.322288 0.400126 2.6379
0.888668 0.368168 0.598255
0.491725 0.0710908 0.326558
-0.179751 0.496962 0.976674
-0.314155 -0.0831205 0.48618
0.71252 -0.0216689 0.562093
-0.232384 0.389301 0.355954
-0.218626 0.262986 0.660531
-0.183594 0.426056 0.381172
-0.248771 0.0457519 0.705718
-0.231891 0.54114 0.876524
-0.0388615 0.68725 1.1237
-0.204291 0.403041 0.456911
0.550951 -0.0122711 0.348775
0.6609 -0.0556958 0.370752
-0.208709 -0.0352163 0.677592
1.16851 0.390482 0.705252
-0.233587 0.394112 0.433779
0.702457 0.218563 0.46442
-0.249151 0.377454 0.362645
-0.205688 0.764063 0.986147
-0.166862 0.4205 0.635596
-0.243915 0.236289 0.491361
-0.364573 -0.102634 0.492135
-0.128773 0.488629 0.522191
-0.90376 0.479758 1.10405
0.48602 0.128694 0.363843
-0.269479 0.360054 0.438184
0.689204 -0.045432 0.471067
-0.0386809 -0.237606 1.22272
0.592563 0.184531 0.804907
0.697822 0.0376328 0.376577
-0.313619 0.811181 2.76449
0.112879 0.561613 0.696852
-0.281964 -0.0495079 0.483567
0.391417 0.912881 1.20796
-0.587352 0.628266 2.27417
-0.325308 -0.0287402 0.508813
-0.426979 0.370311 2.30945
-0.0817458 -0.310771 1.28825
0.27842 -0.566686 2.11304
0.123745 0.554709 0.440652
0.248963 0.854623 1.3067
-0.256089 0.205319 0.836239
-0.215719 0.292393 0.62155
-0.245472 -0.00615612 0.599482
-0.381279 0.524701 2.09035
-0.244275 -0.0554761 0.626706
-0.198515 0.063411 0.695753
0.105832 0.685603 1.85347
0.714447 0.158428 0.976609
0.706783 0.454015 0.872524
-0.22734 -0.0663688 0.652933
0.697927 0.323999 0.610547
0.318782 0.643907 1.62727
-0.276336 -0.114387 0.428231
0.166232 -0.508777 2.0949
0.0832031 -0.469855 1.58458
-0.286057 0.0102724 0.399531
-0.35506 -0.452744 1.55078
-0.220535 0.723112 1.29451
-0.414738 0.663811 2.07343
-0.293201 -0.0667687 0.469617
-0.247287 0.0829961 0.578024
0.647797 0.116217 0.51966
-0.176797 0.411559 0.587125
0.703885 0.449554 0.975152
-0.389101 -0.127388 0.4656
0.636152 0.908724 2.96169
0.109527 0.686566 1.85802
-0.295293 -0.129553 0.46391
-0.397322 -0.251744 1.75815
0.484514 0.576899 1.574
-0.28472 0.107733 0.573386
-0.189989 0.695633 1.23696
0.627893 0.292401 0.809962
0.704591 0.291121 1.01287
-0.0513925 0.823714 1.39212
0.183217 -0.559066 1.98151
-0.203981 0.0663593 0.722665
-0.0807498 -0.267904 1.97349
-0.184725 0.436747 0.575987
-0.260654 -0.112275 0.408477
0.0668501 -0.47125 1.67979
-0.417019 0.426099 2.41322
-0.410015 0.0137586 0.574815
-0.21943 -0.14956 0.599378
-0.365307 -0.461375 1.60733
-0.418265 -0.268385 1.83933
0.672998 0.193069 0.503823
0.669702 0.209382 0.905098
-0.0327543 -0.218708 1.86675
-0.384224 0.300128 2.25237
-0.151319 0.734633 1.17366
-0.0777136 -0.230787 1.17599
0.398253 0.817533 2.06968
-0.408129 0.603653 1.86344
0.645975 0.35322 0.852028
0.582375 0.271641 0.77334
-0.387253 0.596573 2.43573
-0.144019 0.703642 1.24765
-0.0664715 0.660017 1.89682
0.703847 0.446756 0.877822
-0.387261 -0.248003 1.69386
-0.373917 0.138901 2.16668
-0.266731 0.559961 1.02411
0.584055 0.721557 1.91811
-0.00947487 0.840212 1.08301
0.950773 0.238564 0.668501
0.459316 0.851849 0.907879
0.835763 0.23327 0.69278
0.724642 0.164565 0.601399
0.65515 0.324672 0.608233
0.798616 0.359792 1.09029
0.958843 0.333846 2.09244
-0.330387 -0.118052 0.413535
-0.206484 0.997233 2.81652
-0.384548 0.38193 2.36616
0.130445 -0.50867 1.71289
0.0715457 -0.525585 1.85419
-0.0717697 1.05463 2.7105
-0.293604 0.0764441 0.515391
-0.365235 -0.447913 1.60342
0.586883 0.661141 1.8954
-0.210812 0.36913 0.521352
1.05649 0.0117916 1.21506
0.31398 0.541327 0.638255
-0.861787 0.307825 1.05773
0.617565 0.371773 0.817263
-0.400624 0.287459 2.29256
0.368535 1.03364 2.70472
-0.389969 0.587811 2.40635
0.899789 0.458223 0.787893
0.668811 0.311303 0.585408
-0.326963 -0.38963 1.42389
0.649241 -0.550943 2.12716
-0.0410841 0.741504 1.22072
0.812565 0.0934693 0.744529
0.770189 -0.450435 1.67601
0.946103 0.291869 0.711769
0.703317 0.187391 0.527962
0.722605 -0.100731 0.435299
-0.110154 1.12359 2.88885
0.129867 0.686571 1.87569
0.77252 0.275164 0.498374
0.689452 0.180457 0.57299
-0.382873 0.57588 1.86366
-0.322261 0.600955 2.62838
0.672739 0.34262 0.572484
0.700254 0.313318 0.591426
0.742876 0.31498 0.650592
-0.150109 0.719515 1.29998
0.73516 0.0920987 0.945151
0.870429 0.0552587 1.23549
0.604141 0.393477 0.841331
-0.207177 0.400717 0.37607
0.286525 0.605326 1.51001
0.861283 0.274829 0.704337
0.908135 1.27848 2.91155
0.742378 0.306894 0.560028
0.623616 0.093103 0.772028
0.00800061 -0.273499 2.30779
-0.336873 0.138734 0.474596
0.731287 0.780751 0.958364
0.0486667 0.710491 1.26661
0.69951 -0.66713 3.20435
0.670249 -0.489072 2.05375
-0.218282 0.0874274 0.62646
-0.230572 0.419666 2.87775
-0.135642 0.818992 1.20711
-0.152742 1.3974 3.17415
-0.161961 0.418228 0.365994
0.30929 -0.620167 2.34494
-0.285384 -0.0498181 0.489798
-0.117555 0.421601 0.396937
0.340597 1.10493 1.7631
0.853603 0.000239438 1.88127
0.832851 0.858032 1.19767
-0.293913 0.551739 0.606999
-0.231857 0.678665 3.05536
-0.0375942 0.761556 2.41174
-0.199877 0.426108 0.371065
-0.160911 0.35969 0.421925
-0.284972 -0.106567 0.347488
-0.0998311 0.813589 1.68688
-0.136136 1.32122 3.02302
0.376927 0.793424 2.37007
-0.406888 0.151349 2.43507
-0.223649 0.749104 1.38587
1.05123 0.660273 2.26371
0.94826 0.666102 1.74475
0.321203 -0.427181 2.08531
0.0773937 1.29011 3.40227
-0.177 0.424048 0.667947
-0.237787 -0.0363443 0.598428
-0.185818 0.913264 2.1256
0.684835 0.784507 2.42509
-0.18646 0.647567 1.18106
-0.285519 0.0766302 0.541678
-0.204691 0.412037 0.350158
0.455905 0.925071 3.20284
-0.0810949 -0.201314 1.2106
-0.290152 0.189159 2.53369
0.821809 0.803955 1.21793
-0.380546 0.3869 2.39333
-0.0932071 0.810353 1.00298
1.13883 -0.583344 2.34892
-0.0345328 -0.233238 2.0081
-0.0451193 0.786158 1.31689
-0.147361 0.82273 1.60737
0.917788 0.750874 1.67565
-0.151807 0.858614 1.6648
1.12076 -0.291135 1.37993
0.16154 0.694584 1.84404
-0.292176 0.188707 2.57878
0.0203396 -0.322305 2.73315
0.843891 -0.372585 1.55964
-0.000103253 0.730655 1.16483
0.558297 0.763445 2.04668
-0.00177345 0.797154 1.41248
0.545114 0.836207 1.91157
0.304376 1.03733 1.56746
-0.178283 0.831655 2.64626
0.103834 0.747184 1.18568
0.0299858 0.697543 1.17389
0.541124 0.78445 2.14812
-0.477726 0.523851 2.56494
-0.245413 0.257344 0.49218
0.965242 0.960201 1.63339
-0.385292 -0.0866093 0.452762
0.570989 1.08649 1.72878
0.0139065 0.843596 2.8789
-0.155611 0.867209 1.13438
0.976031 0.300337 2.10241
-0.426987 0.294301 2.73121
-0.433365 0.474088 2.39244
-0.158123 0.798033 1.03348
-0.0989599 0.520571 0.816475
0.927964 0.756267 1.68365
-0.283704 0.0805476 0.568693
-0.241923 0.0868926 0.650382
0.724217 0.770342 0.957414
0.435986 0.951163 3.00368
-0.204822 0.508733 0.256743
-0.124549 0.342247 0.105475
-0.346933 0.490167 0.353948
-0.198847 0.3835 0.288002
-0.130172 0.472565 0.458536
0.465656 0.742491 0.885724
0.486412 0.627675 0.536534
-0.146404 0.457474 0.427625
0.715962 0.339678 0.66434
-0.119776 0.796469 1.3419
0.577787 0.347124 0.680881
-0.190597 0.476599 0.677148
-0.131908 1.08692 1.36828
0.29674 0.610023 0.528763
0.585037 0.187652 0.788694
-0.194531 0.729128 1.31551
0.533588 0.37511 0.704467
-0.285653 0.661894 2.91242
-0.20487 0.112318 0.723965
-0.215187 0.470316 0.633483
-0.18763 0.184481 0.678616
-0.222897 0.710684 1.13612
0.677309 0.330675 0.629215
0.0965215 0.68901 1.07969
-0.198094 0.0661495 0.693649
-0.207267 0.489185 0.487598
0.0227774 -0.350284 2.16549
0.0288627 -0.330758 2.02712
0.525933 0.815257 0.986922
-0.0269092 -0.256216 2.23006
-0.227829 0.249004 0.546817
0.7505 -0.200523 1.41329
-0.241824 0.385261 0.414131
-0.225807 0.49698 0.857127
0.442881 0.743319 0.542676
0.505718 1.0389 2.04842
0.638157 0.742679 0.803127
0.781731 -0.68169 3.27304
-0.348173 0.662869 2.83421
-0.253091 0.00939023 0.617521
-0.189189 0.886132 2.1376
-0.295111 0.56384 2.76521
-0.271973 -0.067699 0.424907
0.921694 0.651952 1.7158
0.590293 0.0941721 0.720689
0.431022 0.730074 0.650594
-0.407327 0.516973 2.23478
1.04463 1.2187 2.08086
-0.215615 0.799429 2.52604
-0.285427 -0.0491907 0.489199
-0.185159 0.835876 1.07568
1.14844 1.17309 2.43684
-0.0659479 1.07973 2.76592
-0.137506 0.876106 1.12487
0.691693 0.942585 2.72133
0.486705 0.842123 1.0055
-0.386965 0.0815325 0.639697
0.890443 0.306404 0.610182
0.312433 -0.594201 2.29056
-0.0488345 0.860018 1.24513
0.653475 0.329405 0.621321
-0.372124 0.561702 1.73091
-0.252271 0.201091 2.68769
0.140139 0.819614 1.86429
-0.255209 0.0600205 0.765613
-0.325191 0.0713412 0.551688
-0.192998 -0.0261397 0.638337
-0.218517 -0.149458 0.603145
-0.225135 -0.0783024 0.660274
-0.241252 0.386576 0.45596
-0.227116 0.371623 0.429712
-0.279874 -0.108907 0.373596
0.583507 -0.701626 3.42002
0.775289 -0.228881 1.43068
0.81347 0.00188896 1.7854
0.841825 0.822443 1.25036
0.0168948 0.757426 1.48008
-0.225413 0.833246 2.63816
0.29307 -0.530036 2.07949
0.188361 -0.43273 1.78714
0.864464 0.0817146 1.23646
0.639476 0.300744 0.480451
-0.227858 0.422951 0.360155
-0.179472 0.942123 2.21076
0.533198 0.78176 2.16377
0.863242 0.00600014 1.09079
0.533699 0.828648 1.93775
-0.286283 0.106726 0.581134
-0.0446989 -0.300299 1.2829
0.985767 0.696335 1.85568
0.636694 0.407099 0.772426
-0.141545 0.684745 1.45043
0.241099 0.756635 2.10693
0.821461 0.0161351 1.03592
1.07027 0.0904805 1.41081
0.727513 1.21237 2.30986
0.293266 1.00344 1.50233
0.862996 0.844311 1.29387
1.03193 -0.324226 1.93662
0.959986 -0.430022 1.79085
-0.418364 0.147578 2.34383
-0.401898 -0.150866 0.663082
0.613197 0.777166 2.03852
-0.239085 0.66024 2.97468
-0.311154 0.0350701 0.434829
0.740019 0.889361 2.68402
-0.123728 1.32468 3.06042
-0.192157 0.871716 2.1142
0.604169 0.214165 0.816408
-0.305188 -0.00969255 0.425906
-0.214973 -0.0534052 0.734685
-0.225931 0.0274524 0.659316
-0.470155 -0.109176 1.82026
0.00497446 -0.277853 1.23617
-0.208151 0.216701 0.489973
-0.247289 -0.0944479 0.570786
-0.298125 -0.0110457 0.523677
-0.216419 0.373238 0.437627
-0.191052 0.401024 0.60859
-0.00385839 -0.413587 1.50736
-0.0427852 -0.233067 1.18421
0.381657 0.711447 0.754734
-0.209624 0.328785 0.341311
-0.112921 -0.265606 0.945974
-0.41762 0.574158 0.5052
0.096377 -0.479857 1.98037
-0.297978 0.463267 0.409946
-0.190849 0.421669 0.458299
-0.224593 0.402853 0.375414
-0.204351 0.424544 0.413302
-0.238885 -0.160437 0.649144
-0.228368 0.242888 0.68069
0.61601 0.274535 0.779805
-0.0660133 -0.190114 0.998556
-0.0717435 -0.275561 1.19674
0.631063 0.359679 0.725459
-0.122752 0.59153 0.746562
0.680343 0.116588 0.970846
0.699628 0.338727 0.957408
0.833699 0.357276 0.579996
-0.215443 0.219716 0.67071
0.748064 -0.189326 0.948222
0.0961019 0.849959 1.79019
-0.229966 0.711544 3.09915
0.770906 0.44036 1.2371
0.153342 0.68537 1.55609
-0.211257 0.201743 0.77191
-0.202461 0.11381 0.671681
-0.222932 0.935665 2.58675
-0.0389746 -0.256301 2.18269
-0.42382 0.596471 2.50482
0.468856 -0.735998 3.56047
0.337819 -0.631198 3.04684
-0.226172 -0.0332189 0.639329
-0.154163 0.428577 0.381087
-0.337386 0.39758 2.67112
-0.224352 0.417623 2.87351
-0.408261 0.434179 2.40852
-0.121442 0.452029 0.429747
-0.242793 0.0877032 0.604266
-0.0457325 0.674503 0.802532
0.520442 1.06359 1.67476
-0.291814 -0.0961588 0.319328
-0.160633 0.473346 0.720853
-0.329364 -0.427341 1.39667
1.10109 1.36182 2.91471
0.43718 0.980948 2.03509
-0.18389 -0.254535 0.56968
-0.282701 -0.0217446 0.544731
0.084493 -0.463009 0.943757
-0.0671412 -0.438495 1.02057
-0.0102784 -0.455497 1.17235
-0.977113 0.938955 1.08511
-0.179801 0.928443 1.41284
-0.196322 0.242755 0.636587
-0.177536 0.509174 0.577257
-0.20547 0.547167 0.576215
-0.216201 0.357886 0.447475
0.605409 0.34802 0.408793
-0.685931 0.639495 2.21298
-0.101413 0.487148 0.33695
-0.194965 0.629777 0.988419
0.868248 0.324073 0.630619
0.606041 0.212866 0.909907
0.930342 0.231921 0.581457
-0.264937 0.809014 2.82948
-0.428155 -0.271449 1.8993
1.0665 0.877476 2.03915
0.946237 -0.275645 1.747
0.535659 0.362132 0.744508
0.508873 0.170655 0.670576
0.804988 -0.0321349 1.26578
1.02754 0.179683 1.50788
0.510424 0.319201 0.605203
0.463137 0.257573 0.380613
0.719818 0.120239 0.894845
0.407391 0.218394 0.260172
0.530155 0.165601 0.678273
0.174228 0.151664 0.15372
0.924302 0.586146 2.0306
0.43046 0.259621 0.386976
0.321339 0.0868727 0.203638
0.55787 -0.014974 0.491741
0.760875 0.125507 1.12749
0.710019 0.0689962 0.617539
0.517956 0.273956 0.408153
0.522072 0.188972 0.685135
0.836762 0.398698 1.29495
0.209838 0.157216 0.155325
0.367896 0.145738 0.313784
0.590095 0.164793 0.452739
0.414165 0.218174 0.263893
2.27817 -0.208222 2.78156
1.69925 0.384968 3.70968
0.523184 0.103936 0.409288
0.407138 -0.0250549 0.279944
0.484709 0.00211375 0.372609
0.516963 0.159373 0.661247
0.45845 0.144403 0.643291
0.44007 0.149851 0.341295
0.137095 0.0766058 0.123743
0.165374 0.0717138 0.125385
0.21085 0.0495939 0.109331
0.433749 0.0443185 0.422609
0.151228 0.0840555 0.127675
0.288715 0.0217453 0.0764869
0.508453 0.13742 0.428197
0.515697 0.352973 0.722034
0.697507 0.322937 0.595571
0.444417 0.177166 0.336899
0.682784 0.128167 0.855647
0.113264 0.677957 1.49124
-0.197786 -0.0714583 0.529525
-0.242476 -0.199382 0.520207
-0.0792424 0.388411 0.482465
-0.236856 -0.319702 0.823694
-0.150061 0.599687 0.81732
-0.223966 -0.195105 0.518525
-0.130564 -0.299752 0.90633
0.076697 0.973129 2.07137
-0.165439 0.617553 0.711392
-0.189785 0.769128 1.5209
-0.187825 0.421337 0.349516
-0.210735 0.139482 0.667585
-0.236439 0.220611 0.426714
-0.198034 0.414775 0.333548
-0.210259 0.374255 0.48481
1.00006 -0.528433 2.25256
-0.110698 0.778589 0.931989
-0.229285 -0.0349112 0.651028
0.370983 0.738385 1.87629
-0.231925 0.614992 1.63678
-0.242097 -0.109643 0.609393
0.0132894 0.943477 1.81757
-0.111184 0.696525 1.1823
-0.114123 0.764891 0.883978
-0.21398 0.361514 0.496585
0.0274652 -0.3574 2.18965
0.916473 0.0336016 1.30359
0.076077 0.642338 1.1752
1.18712 -0.344946 1.54665
-0.172646 0.416315 0.354419
-0.0271099 0.837443 1.17568
-0.240265 0.873111 1.18468
0.260662 0.766002 1.12287
-0.178348 0.85696 1.23245
-0.101818 0.615248 1.02541
0.244927 0.713787 1.97048
-0.185935 0.263773 0.691878
-0.27766 0.232962 2.57928
-0.245162 0.0537098 0.731664
-0.0258324 0.736649 1.24544
-0.263392 0.770595 2.45955
-0.253622 -0.145502 0.484427
-0.410293 0.139016 2.20372
0.939518 0.269838 1.77043
-0.191329 0.427057 0.356254
0.656096 -0.419738 1.96073
-0.0704092 0.653506 1.86759
-0.244926 -0.153026 0.519253
-0.135102 0.834055 1.06289
0.777828 0.327578 1.14907
0.52605 1.03082 2.12288
0.0025024 0.727461 1.28567
0.906052 0.74703 1.6853
0.880481 -0.200216 1.29597
-0.118497 0.91617 1.60157
0.0128411 -0.241924 1.51943
1.00364 -0.45011 1.84531
-0.181063 0.893447 2.52971
0.54253 1.1274 1.88802
-0.117042 0.446475 0.489411
-0.017879 -0.372901 0.960023
1.0981 -0.246947 1.63179
-0.332712 0.394883 2.6546
0.635585 0.324908 0.80699
0.591089 0.245826 0.756925
-0.243503 0.0495283 0.699364
0.903707 0.00599446 1.22425
0.266903 0.717154 2.25294
1.09041 -0.311732 2.43196
-0.276529 0.103991 0.55353
0.392452 0.530684 0.265875
0.615044 -0.50926 1.92085
0.169871 -0.618639 2.90803
0.941056 0.025985 1.32906
-0.0890926 0.775223 0.93517
1.23163 0.0191256 1.27455
0.878255 0.0187692 1.01967
0.628995 0.315816 0.369889
-0.159044 0.664723 1.01414
0.648713 0.309134 0.388708
1.06136 0.789468 2.23813
0.701548 0.31957 0.531389
0.707106 0.321362 0.536774
-0.236809 0.370793 0.378332
-0.570209 0.0354048 0.802331
0.543832 0.669047 0.651226
-0.525672 -0.165133 2.02181
-0.310155 0.0935144 0.374613
0.870429 -0.446301 1.79852
-0.221265 0.212158 0.645163
0.964189 1.05522 1.80738
-0.368295 0.591623 2.38427
1.19502 1.35862 2.86066
0.30734 0.668126 1.44074
-0.142842 0.993072 2.63013
0.531017 1.05898 1.68675
1.02372 0.201555 1.46315
-0.293099 0.44311 0.424775
0.973562 0.453277 1.4517
-0.203831 0.182535 0.683425
0.686936 1.04509 3.32845
1.02988 0.886188 2.14681
1.25338 -0.69077 2.74932
0.857385 -0.00268427 1.87697
-0.235179 0.420037 2.85538
0.54593 0.313944 0.740225
-0.177273 0.498539 0.888955
0.913336 0.472905 1.4172
-0.260116 0.70232 1.25997
-0.131662 1.2016 2.94591
0.727729 -0.462738 1.92979
-0.221196 0.564229 2.75659
0.651647 0.944241 3.06816
1.02297 0.641005 2.20026
0.627765 0.935404 2.99092
-0.187788 0.401212 0.553205
-0.236995 0.190085 2.69017
0.911903 0.250974 2.00188
1.06433 0.912992 2.22563
1.08276 1.11292 2.31979
-0.269141 0.0360218 0.586241
-0.322226 0.506522 2.95686
-0.373251 0.386648 2.40953
-0.2531 0.633387 1.74101
-0.199183 0.375776 0.600735
-0.171231 0.628835 0.974242
-0.0481661 -0.460404 2.79759
0.0669149 1.23016 3.22213
0.392316 0.778894 1.77707
-0.397349 0.467994 2.20118
-0.334085 0.527826 3.08749
0.803573 0.0309224 1.07947
1.03524 0.519473 1.8555
0.612 0.0916794 0.715192
0.0729281 0.624958 1.14975
0.475897 1.04592 2.18982
-0.205421 0.12537 0.666512
-0.173015 0.437903 0.544231
-0.0447529 1.33177 3.09907
0.4619 0.979295 3.41534
0.790444 -0.00448041 1.51084
-0.0907503 0.41153 0.287362
-0.188117 0.42557 0.509902
-0.164574 0.461354 0.541613
0.601237 0.325671 0.61228
0.809984 0.451326 1.30497
0.655319 0.426737 0.863484
0.0171643 0.422743 0.349553
-0.179812 0.39162 0.304701
-0.763649 0.680344 0.874325
0.60538 0.826633 0.991413
-0.290782 0.0449593 1.01783
-0.169713 0.445846 0.558036
-0.210969 0.412494 0.55828
-0.293714 0.406862 2.7074
-0.16168 0.829309 1.24382
0.892317 0.252859 1.69838
-0.083295 0.772948 0.946023
-0.52532 0.28454 3.22177
0.968852 0.499797 1.7519
0.711582 -0.43138 1.99239
-0.25639 -0.0238476 0.626009
-0.221591 0.0928082 0.642373
0.867978 0.89695 1.36582
-0.16665 0.471579 0.575017
-0.00771855 1.2358 3.09252
0.131387 0.527525 0.346235
0.223359 0.897532 1.2281
-0.198501 0.224162 0.646331
0.854669 0.86817 1.43886
0.253386 0.898905 2.58403
0.779309 0.443239 1.24757
0.725864 0.332135 0.654603
1.0707 0.539022 1.64602
0.482435 0.963495 1.96078
0.577756 0.803257 2.12184
-1.20521 0.526114 1.51286
0.792342 0.346836 0.713691
0.0152049 0.818371 0.65212
-0.351389 0.29953 0.441302
-0.0432402 0.274994 0.126395
0.64924 0.425035 0.849224
0.684915 0.265913 0.439243
0.589722 1.02711 2.24898
-0.230692 0.822555 1.06616
0.875032 0.724531 1.45111
0.869677 0.494789 1.39231
-0.0899097 0.406383 0.282115
-0.108104 0.922334 1.14177
0.569903 0.692979 0.68428
0.680628 0.755888 0.867331
-0.199917 0.644871 1.01445
0.645184 0.35822 0.799674
0.676076 0.346186 0.501519
0.577818 0.395913 0.758983
-0.0768871 0.363012 0.236208
0.677665 0.294453 0.409842
0.556917 0.298206 0.3286
0.737741 0.359811 1.01645
0.784856 0.431996 1.12652
-0.390342 0.430372 1.17065
0.115397 0.42476 0.415401
0.714803 0.407975 1.02798
0.62477 0.255241 0.842347
0.19131 0.798039 1.0739
-0.234139 0.384503 0.401873
-0.164707 0.424177 0.369333
-0.204654 0.288835 0.628225
-0.398308 0.41514 2.5905
-0.214884 0.405853 0.410055
-0.424136 0.538705 2.3494
-0.152074 0.445912 0.408283
-0.239698 0.406191 0.408669
-0.164729 0.611659 0.738731
0.268344 0.545233 0.369676
1.2088 0.768119 2.62025
0.167233 0.786521 0.985612
0.867307 0.486961 1.5985
0.978519 0.192884 1.27731
-0.712359 0.430856 0.895688
-0.18851 0.254847 0.592717
0.881012 0.902518 1.33576
-0.310145 0.876118 2.84393
-0.235888 0.395883 0.365785
-0.17799 0.985315 2.33847
-0.214454 0.423238 0.288672
-0.216845 0.575958 0.94713
-0.387953 0.261683 2.44814
-0.241677 0.417404 0.326362
-0.251763 0.454512 0.458986
0.0191554 1.27652 2.25985
-0.29279 -0.0429653 0.404205
0.388806 0.545506 0.371776
0.340438 0.516258 0.316486
0.821049 -0.0261814 1.57454
-1.36361 0.601672 1.67892
0.827433 -0.0101941 1.24801
0.00815433 0.893855 1.11714
1.0349 0.239806 1.47938
-0.200769 0.364941 0.51295
0.42714 0.855286 2.62865
-0.194714 0.472929 0.512073
-0.202607 0.48442 0.572198
0.116842 0.74653 1.62983
0.265941 0.822217 2.06381
0.601532 0.136942 0.676899
-0.0694837 -0.331986 0.8867
0.677381 0.129129 0.542753
0.0861349 -0.426611 0.898496
-0.193992 0.417409 0.415324
0.0269528 0.934824 2.36563
-0.287384 -0.0589522 0.443752
-0.00655764 -0.250752 1.14652
-0.15025 0.443155 0.404094
-0.398134 0.586438 1.80489
1.16332 0.0798707 1.33581
-0.313563 0.0178966 0.936283
-0.215677 -0.0341627 0.692147
1.01221 -0.233786 1.49756
-0.118436 -0.320218 0.929891
0.586241 0.191586 0.825976
-0.429816 0.418214 2.5098
-0.199833 0.439981 0.489907
0.0576883 1.14536 2.38349
0.453048 0.600947 0.475918
0.538333 0.687459 0.638914
0.519784 0.976493 2.29689
0.830237 0.45746 1.34776
-0.271171 0.799168 2.72014
-0.0343553 1.46466 3.08747
1.02096 0.759373 2.1414
-0.197456 0.0833978 0.676644
-0.352092 -0.459157 1.50842
0.818821 -0.237204 1.82295
0.545434 0.902091 2.11628
-0.131173 0.685602 1.16381
0.423484 1.22213 3.84368
0.497068 0.275413 0.654973
-0.322209 -0.103664 0.614617
-0.227986 -0.201077 0.458152
-0.24367 -0.178149 0.451943
-0.136849 0.353963 0.37321
0.377814 0.532335 0.374558
0.263861 0.510852 0.289553
0.743945 0.175791 0.640375
0.832279 0.224324 0.572825
0.56238 0.330197 0.376539
0.313172 0.612352 0.424476
0.591886 0.297932 0.358406
0.623636 0.304293 0.377431
-0.202736 0.203887 0.60478
0.687585 0.760225 0.878768
-0.170206 0.446456 0.518211
1.14809 1.31146 2.74088
0.558315 0.848239 1.9395
-0.213558 0.109234 0.663018
-0.190547 0.885234 2.46561
0.576465 0.976773 2.05461
0.0952151 0.795722 0.972692
-0.179801 0.671328 0.861165
-0.199948 0.27205 0.687143
-0.426033 0.237771 2.65373
-0.00408542 0.709105 0.376114
0.511867 0.736888 1.895
0.948848 0.279906 1.80064
1.08437 1.41382 3.05563
0.663828 -0.574888 2.7598
-0.178592 0.914518 2.59033
0.952451 0.514992 1.74183
-0.430136 0.481902 2.37584
-0.447374 -0.298679 1.91744
1.13503 0.387434 1.5907
0.0995784 0.780679 1.08289
-0.194663 0.0990025 0.712233
-0.163723 1.38764 3.1457
-0.387559 0.399474 2.49052
-0.242833 0.532591 3.13113
-0.466635 0.673533 2.5244
-0.136498 0.529918 0.539902
-0.245283 0.330643 0.708973
-0.192463 0.135378 0.604995
-0.180771 0.665778 0.731351
0.562312 0.383007 0.641566
-0.220822 0.702967 1.12111
-0.207966 0.389441 0.630266
-0.20092 0.0981711 0.507181
0.631744 0.333528 0.81276
-0.13126 0.506382 0.508209
0.576311 0.320503 0.42743
1.15146 -0.041032 1.43251
0.61229 0.325655 0.786901
0.633308 0.290652 0.818591
0.119334 0.545517 0.473178
-0.207126 0.455789 2.65928
0.574342 0.999217 2.20139
0.620972 0.364456 0.768609
1.01543 0.0829776 1.44107
0.660343 0.339055 0.464213
0.104354 0.50003 0.42159
0.605344 0.203091 0.791057
0.774891 0.784314 1.08966
0.263835 0.690542 0.624234
0.5741 0.304346 0.336423
-0.258131 0.401556 0.994742
0.627659 0.194383 0.904632
-0.0711322 0.413764 0.308735
0.0942686 0.473776 0.393753
-0.272662 0.138311 0.386459
-0.335214 0.483644 1.32869
-0.187975 0.263068 0.656178
0.58768 0.306651 0.344354
0.657739 0.342274 0.485631
0.542395 0.315697 0.424131
0.610963 0.319541 0.51672
1.14455 0.394668 0.823441
0.621772 0.270202 0.419864
-0.166297 0.295084 0.253247
-0.210351 0.216688 0.659024
-0.205452 0.401582 0.544761
0.67746 0.316604 0.576511
-0.174657 0.251803 0.605402
0.268353 0.68208 0.475314
0.571683 0.31874 0.429217
0.716101 0.323411 0.55163
0.800144 0.342683 0.58039
-0.0788205 0.36824 0.240778
0.256176 0.589014 0.359122
0.180534 0.515658 0.33319
-0.0809031 0.462335 0.363722
0.587646 0.322243 0.443292
0.672007 0.300764 0.609316
0.588905 0.177823 0.767201
0.683975 0.399211 0.94522
1.07358 0.375411 0.7367
-0.0707576 0.414067 0.309191
-0.277149 0.44813 2.97403
-0.202688 0.984626 2.43429
-0.167248 0.767497 0.959297
-0.118147 0.451667 0.447434
1.13384 1.25688 2.27023
-0.267945 -0.124864 0.417089
-0.0852228 -0.34576 0.861297
-0.0526841 -0.375302 0.874347
-0.218888 -0.192814 0.519411
-0.228582 -0.184375 0.482221
0.636972 -0.357265 1.44406
0.101663 0.638774 1.2104
1.04227 0.0689423 1.45818
0.576531 0.974092 2.04092
-0.138809 0.354481 0.337798
-0.200008 0.413863 0.435748
-0.199279 0.396475 0.589634
-0.118196 0.398797 0.260007
0.201577 0.493534 0.416204
-0.248834 0.419756 0.472981
-0.277301 0.354673 0.390992
-0.0982247 0.406478 0.279509
-0.333182 0.46794 0.350245
0.458642 0.280099 0.340361
0.279275 0.429184 0.291505
0.481618 0.261092 0.412559
-0.13112 0.367783 0.217573
0.38158 0.51932 0.269644
0.637848 0.328905 0.807403
0.792892 0.452253 1.27888
-0.175303 0.659436 0.816623
-0.335008 -0.0414007 0.52037
-0.0500599 -0.350996 0.949339
0.608978 0.187056 0.800495
0.0998808 0.442491 0.350891
-0.217943 -0.0739178 0.6342
-0.320555 -0.158798 0.3643
0.6325 0.375016 0.872107
-0.3103 -0.169207 0.444201
0.743352 0.175111 1.01271
-0.267023 0.536363 1.02273
-0.2587 0.369678 0.383066
-0.22218 -0.146558 0.60438
0.640059 0.208971 0.899032
-0.157017 0.315276 0.296941
0.835823 0.0137594 0.537505
0.503187 0.213782 0.673451
0.112636 0.776573 1.66105
-0.392193 0.147691 2.32691
0.451943 0.133829 0.364541
0.494905 0.105265 0.395319
0.491609 0.138083 0.419996
0.176153 0.0794513 0.114684
0.0690674 0.156272 0.337304
0.260296 0.233738 0.28834
0.15957 0.0862256 0.132949
0.233478 0.224831 0.276121
0.181817 0.0690553 0.124366
0.218422 0.166254 0.211873
0.965844 0.183952 0.572643
0.475186 0.081139 0.268922
1.0528 -0.485107 1.83287
0.902559 -0.541665 2.2457
1.01469 0.0930826 1.44952
0.501593 0.830619 1.98086
-0.191175 1.19042 2.79439
-0.216957 0.413607 0.43431
-0.256409 0.365733 0.413067
-0.137453 0.411986 0.377063
0.985198 1.06509 1.78373
0.601976 1.19153 1.99806
0.862171 -0.00271456 1.07966
1.22864 1.6081 3.33552
0.534037 0.304978 0.377302
0.267324 0.793483 2.20414
0.765433 0.324812 0.645119
-0.299828 0.485238 0.497609
0.856403 0.357922 0.719658
0.0114507 2.22336 1.36133
0.783017 -0.00114897 1.47086
-0.205943 0.379689 0.547105
-0.237968 0.24388 0.522347
-0.206183 0.389743 0.472365
-0.161093 0.882679 1.23664
0.359018 0.812845 2.23763
0.284436 0.641258 1.64259
-0.26893 0.25763 0.496777
0.251129 0.64003 0.436446
-0.142687 0.449621 0.415848
-0.198005 0.385805 0.28673
-0.263435 0.274453 0.483791
-0.239092 0.366661 0.458035
-0.227412 0.452929 0.505699
-0.234703 0.437592 0.475426
-0.228489 0.405309 0.335003
-0.262258 0.212247 0.855894
-0.155155 0.775734 1.25201
0.101284 0.496686 0.418267
-0.165831 0.419896 0.169429
-0.509815 0.762597 1.97802
-0.116725 0.338253 0.397965
-0.27334 -0.108892 0.420074
0.601686 0.28169 0.773472
0.586258 0.377482 0.725258
0.825578 1.19548 2.68792
0.509824 0.296251 0.625175
0.896958 0.0698551 1.12568
-0.290202 -0.0772064 0.497263
0.73891 0.135687 0.95514
-0.280866 -0.0654355 0.455007
-0.148181 0.406702 0.484791
-0.297745 0.0837342 0.577328
-0.1923 0.474326 0.456807
-0.197837 0.403041 0.494503
0.753679 1.134 2.47407
-0.223338 0.242924 0.441125
0.94285 0.665684 1.7571
0.0250951 0.994427 1.85434
1.2257 1.62927 3.36595
0.27379 0.542322 1.32241
0.227593 0.485005 1.13694
0.199328 0.467783 1.06714
-0.228906 0.61295 1.02272
0.216312 1.00879 1.26872
1.18936 1.20445 2.48288
1.22181 1.28046 2.4755
-0.227494 0.419568 0.329514
-0.250397 0.462462 0.385484
-0.275938 0.383115 0.318645
-0.190579 0.352002 0.265862
-0.151738 0.490953 0.349369
-0.217651 0.0475108 0.69819
-0.0841329 0.576679 0.723769
0.0711822 -0.496719 1.12344
-0.213258 0.146816 0.680633
0.00580614 -0.451793 0.926691
0.519802 0.0968449 0.671138
0.542097 0.252258 0.740144
-0.243211 -0.191152 0.418006
-0.0621076 -0.444832 0.94533
0.0784554 -0.503546 0.981537
0.00462204 -0.477656 0.966234
-0.00412349 -0.440648 0.872209
-0.297519 -0.252974 1.09909
0.143419 -0.500215 1.01617
-0.23032 -0.204387 0.377943
-0.233899 -0.158732 0.347936
-0.328383 -0.00394538 0.455959
-0.156028 -0.315239 1.06682
-0.228767 -0.147992 0.307749
-0.0835752 -0.247965 1.25717
-0.148264 0.565522 0.706207
-0.0745265 0.50809 0.8428
0.649519 -0.461847 1.61939
0.565275 0.258808 0.717288
-0.0608158 -0.201901 1.48233
-0.209089 -0.0330294 0.666513
-0.268155 0.358987 0.402784
-0.437889 -0.561679 1.57194
-0.397105 -0.152961 0.487546
0.320434 1.0185 1.6445
0.628906 -0.407186 1.88833
-0.0446903 -0.259575 1.3358
0.0484154 0.614402 1.1027
-0.0560207 0.428089 0.50053
0.047531 -0.435838 1.36893
0.148328 -0.498262 1.55777
0.67516 -0.555533 2.12818
0.139654 -0.547001 1.92309
-0.306255 0.244244 0.389107
0.540296 0.732024 1.90566
-0.187191 -0.26982 0.626303
-0.254481 -0.0889475 0.743777
-0.125373 -0.333188 0.980515
0.00549957 0.324867 0.393245
-0.143289 0.550229 0.61961
-0.173644 0.4142 0.494144
-0.247833 -0.0695993 0.613924
0.564804 0.164983 0.703389
0.390687 0.79015 0.683315
-0.335916 -0.197871 1.28385
0.809789 0.184502 0.928208
-0.112618 -0.244128 1.09541
-0.289625 -0.364742 1.07584
-0.209425 0.202243 0.727791
-0.279693 -0.129581 0.392362
-0.2569 -0.178555 0.381931
-0.236759 -0.174064 0.440459
-0.236099 0.109447 0.753819
-0.305417 -0.00488517 0.425567
-0.0749445 -1.4184 3.34082
-0.103965 -0.362886 0.913088
-0.313028 0.629894 1.19223
-0.0941262 0.358832 0.217411
-0.220258 0.387282 0.559671
0.0955278 0.443253 0.245941
-0.143388 0.373831 0.122282
-0.211011 0.246361 0.642506
-0.0958302 0.366135 0.22595
-0.263632 0.371346 0.464307
-0.280788 0.833674 2.62725
0.174741 0.584537 0.6301
0.158894 0.680093 1.82464
0.122071 0.506971 0.345418
-0.394876 0.79262 1.49213
0.643337 1.41195 2.86283
0.93874 0.92532 1.51786
-0.141575 1.05572 2.64565
-0.243039 0.595096 3.10458
-0.110746 0.697402 0.855411
0.0958316 0.443687 0.298838
-0.173489 0.450951 0.426443
0.0735201 0.540561 1.01337
0.0795573 0.656198 0.808974
0.758891 -0.440354 1.63475
0.496494 0.3256 0.625468
-0.194557 -0.228047 0.624241
0.0916706 0.520782 1.00099
1.05808 -0.455062 1.95232
1.34852 0.113973 1.69413
1.01602 0.0061471 1.27557
0.76867 -0.049092 0.673405
0.899623 0.0750682 0.927167
-0.265121 0.0141521 0.614213
0.174812 0.697106 0.956132
0.387528 0.772626 0.692997
-0.204225 0.206579 0.615216
-0.290614 0.402167 0.243638
0.190571 0.81633 1.07132
-0.25325 0.00582815 0.6235
-0.0454425 1.44492 3.24725
-0.217549 0.9719 2.38786
0.959277 0.299403 2.06301
0.128377 0.829057 2.23144
-0.232284 0.970229 2.66351
-0.448565 0.439979 2.49684
-0.0524967 -0.379799 0.885508
-0.240499 -0.0816199 0.642395
-0.186246 0.510195 0.901
-0.221944 0.392525 0.566647
-0.20281 0.482919 0.443606
-0.150496 0.896781 1.33591
-0.1822 0.496885 0.597803
0.925166 0.547258 1.65629
-0.0804215 0.545931 0.571232
-0.256778 0.232939 0.475512
-0.226689 0.425025 0.443303
-0.0767911 0.524675 0.541749
0.820698 0.844648 1.18086
0.401905 0.745627 0.746269
-0.119237 0.330978 0.14005
-0.182119 0.35791 0.27534
-0.114859 0.389423 0.253862
0.0869548 0.416799 0.246691
1.0333 0.903159 2.20488
0.929579 0.260892 1.75696
0.665018 -0.187221 1.25147
1.05753 0.0152014 1.51192
-0.124715 0.339593 0.0950003
-0.162458 0.420421 0.365085
-0.0927731 0.364024 0.222461
0.520418 0.331896 0.371432
-0.29491 0.240271 0.374594
0.289907 0.545107 0.315872
0.588065 0.336956 0.391915
0.471574 0.335375 0.480262
-0.255514 0.38049 0.404665
0.346264 0.456044 0.211479
0.569754 0.315467 0.388824
-0.296212 0.244338 0.375043
0.338248 0.643781 0.597477
-0.45588 0.548039 1.32116
-0.227393 0.376532 0.528991
-0.000985716 0.731808 0.879471
0.113506 0.526464 0.436922
-0.247766 0.476396 0.495484
0.172978 0.506427 0.221326
-0.244535 0.351499 0.4286
0.383764 0.917697 0.724633
-0.101744 -0.313649 0.919984
-0.265573 0.133119 1.32769
0.433687 0.844485 0.851696
-0.376439 0.278646 0.45825
0.481803 0.611265 0.590156
-0.222972 0.55213 0.633008
-0.294804 0.155694 0.42035
-0.294022 0.856363 1.61408
0.117836 0.559676 1.36452
0.274529 0.697535 1.30063
-0.185992 0.45001 0.695694
-0.248753 -0.119027 0.494294
0.209044 0.0503196 0.112475
0.561952 0.184456 0.378505
0.500635 0.0532737 0.277875
0.331579 -0.0912271 0.144847
0.519456 0.257413 0.397572
0.304106 0.0166021 0.0716645
0.500026 0.156367 0.393022
0.296896 0.0187299 0.0730445
0.0139997 0.244164 0.438367
0.354964 0.276119 0.500901
0.491217 0.302481 0.662565
0.0169004 0.248761 0.44905
0.44534 -0.00595512 0.395486
0.408171 0.278028 0.527831
0.161096 0.0807029 0.116156
0.287216 0.0721339 0.228486
0.595378 0.268526 0.46382
0.177174 0.071479 0.1245
0.563545 0.192768 0.456577
-0.122829 0.694099 0.86969
0.649818 0.315303 0.50941
-0.41699 0.112228 2.1378
-0.133393 0.37561 0.396856
-0.247714 -0.0879617 0.592416
-0.261193 -0.167885 0.354926
0.855816 0.111944 0.736018
-0.0518567 -0.318764 0.877405
0.662477 0.119728 0.898897
-0.26359 -0.159452 0.399369
-0.183333 0.914185 2.3392
1.19585 -0.346627 1.58232
-0.282588 0.338777 1.10989
0.0570262 -0.453944 0.803519
-0.216801 -0.238653 0.373115
0.0232794 -0.452755 0.868266
0.0147901 -0.468058 0.819595
0.0745605 -0.519693 1.00785
0.0590554 -0.465981 0.825547
-0.169447 -0.300085 0.47101
0.0806005 -0.424869 0.706097
0.0554707 -0.463273 0.816993
0.114552 -0.433618 1.29387
-0.174305 -0.319981 0.519572
-0.159756 -0.282572 0.442002
-0.302213 -0.209687 0.321356
-0.0712003 -0.41667 0.683766
0.778609 -0.0664289 0.543182
-0.0311594 -0.419692 0.689614
-0.066198 -0.405005 0.7271
0.106411 -0.513902 1.015
0.717203 0.218512 1.01886
-0.213703 -0.247205 0.435209
0.532945 -0.39415 0.584498
0.516652 -0.390151 0.609385
0.621674 0.0889034 0.786362
-0.00912321 -0.431656 0.708791
0.239041 -0.416051 0.645362
0.0624967 -0.441077 0.730884
0.0169978 -0.487033 0.855719
-0.174474 -0.289642 0.502688
0.120017 -0.461586 0.772125
0.005555 -0.642191 1.34502
0.793072 0.10165 0.750557
-0.287641 -0.122757 0.378817
0.135857 -0.532456 1.78445
0.638553 0.934624 2.10709
-0.0356476 -0.335531 0.943244
0.0288628 -0.380739 1.00577
0.167152 -0.549017 1.93964
-0.349341 0.484032 1.34952
0.127744 -0.493244 1.65278
-0.171472 0.53532 0.600954
-0.055814 0.896326 1.49541
-0.402841 0.649679 2.61402
0.342542 -0.692259 2.59883
-0.074378 -0.331266 0.92338
-0.0378813 -0.323413 0.897969
-0.000728791 -0.413346 1.19153
0.533806 0.180109 0.692173
-0.156727 1.11864 2.82294
1.06705 -0.648036 2.963
0.928038 0.547329 1.74872
-0.12373 1.05027 2.19741
0.818667 0.0781526 1.00917
-0.255494 -0.144339 0.393387
-0.271404 -0.136632 0.351661
0.59336 0.274159 0.757853
-0.234422 -0.186405 0.408194
-0.00824472 0.592086 0.754908
0.581726 0.128669 0.629281
-0.329752 -0.0891736 0.400591
0.0558879 0.600963 1.38831
0.863645 0.882414 1.29526
-0.177951 0.521126 0.617321
-0.224883 0.36597 0.353074
-0.1996 0.424873 0.359531
0.580547 0.235332 0.799662
0.561111 -0.473851 1.86994
0.146564 -0.532488 1.61513
0.678483 -0.752624 3.34688
0.187588 -0.528126 1.76673
-0.254829 -0.165718 0.447442
0.0655073 -0.441023 0.73092
-0.272965 -0.129164 0.394435
-0.0710628 -0.394718 0.641725
0.138315 -0.485434 0.991391
0.0344921 -0.42774 0.7422
0.0632741 -0.428804 0.709453
-0.0362091 -0.419785 0.608839
-0.0729326 -0.404896 0.656086
0.113613 -0.458114 0.766376
-0.17331 -0.30586 0.478624
0.0276955 -0.4396 0.724358
-0.0602063 -0.40842 0.60375
0.488004 -0.437783 0.596389
-0.0736029 -0.410178 0.667566
0.447219 -0.428185 0.692894
0.115345 -0.459018 0.768563
0.370737 -0.429932 0.705234
0.0811458 -0.443902 0.841471
-0.211346 -0.244229 0.437065
-0.215302 -0.237279 0.371378
0.154315 -0.470709 0.76012
0.184349 0.548167 0.934026
-0.00357309 -0.481609 0.94413
0.968435 -0.678725 3.11684
-0.213094 0.0348341 0.670286
0.981483 0.297656 2.14725
0.756053 0.0947818 0.552635
0.715083 0.189372 0.997983
-0.29315 0.172296 2.67822
0.528142 0.338779 0.809731
0.546642 1.07762 1.74731
1.10409 1.28884 2.70901
0.854689 0.826142 1.25787
-0.209505 0.359535 0.275885
1.14177 1.23811 2.34357
1.0336 1.22422 2.12371
-0.221142 0.368889 0.468673
0.313527 0.469188 0.267141
0.662473 1.00828 2.19964
0.621443 0.706842 0.816362
0.963685 0.215907 1.37413
0.393396 0.552298 0.426686
0.182127 0.500935 1.18487
-0.0765022 -0.360751 0.887088
-0.0852674 0.48229 0.949822
-0.212944 0.257744 0.609986
-0.113886 0.410417 0.384816
-0.101017 -0.36931 0.942191
-0.119877 -0.307431 0.889725
-0.367242 -0.113845 0.403449
0.542226 0.268387 0.429058
-0.20339 0.868792 2.38868
0.444261 0.592877 0.49781
0.672409 0.885092 3.0309
-0.258349 0.283563 0.515159
0.00685515 0.87137 0.719044
0.313641 0.598208 0.463254
0.601013 0.853278 2.35396
-0.512996 0.371005 2.67061
-0.0665726 1.33804 2.45188
0.245653 0.631103 0.483096
0.593431 0.383947 0.824827
-0.171962 -0.286297 0.495331
0.0708233 -0.47918 0.925296
-0.257098 -0.165912 0.348484
-0.0655643 -0.401318 0.920257
-0.375522 -0.157127 0.438739
0.764401 -0.463267 1.65977
-0.0483081 -0.295443 1.24806
-0.309924 -0.104074 0.470737
-0.245284 -0.0236928 0.599817
-0.321607 0.0694437 0.515537
0.421027 0.574282 0.416924
-0.359791 0.36311 1.07299
0.524113 1.06302 1.76859
0.925991 -0.207653 1.37925
0.776269 1.2665 2.47462
0.557934 0.830846 2.3023
0.0351855 0.679912 1.84239
0.754745 -0.414103 1.80362
-0.147231 0.576762 1.0893
0.995379 1.07625 1.85162
0.46004 0.99731 2.0799
0.544275 0.883894 2.12219
0.363342 0.890149 3.06821
-0.273469 0.763375 2.61615
0.755074 0.781251 1.03046
-0.1085 0.35569 0.204409
0.0704588 0.389873 0.308302
0.850968 -0.479006 1.98231
-0.181903 0.946758 2.71264
0.915962 -0.426168 1.67198
0.149537 0.682135 1.54607
0.749311 -0.529847 1.8904
0.373854 0.707121 1.66409
0.924551 -0.284648 1.07346
-0.207334 0.500598 0.704263
0.70883 0.405908 1.1306
-0.240602 0.35054 0.424243
-0.232147 0.60721 1.01767
0.312189 0.458614 0.320257
0.62517 1.19726 2.46471
-0.161385 1.33366 2.75569
0.0356045 1.04306 2.721
-0.381165 0.2813 1.99988
-0.268051 0.282138 1.04585
-0.143798 -0.338904 1.22725
-0.053977 -0.384625 0.889542
-0.223664 -0.187181 0.475638
0.56245 0.0870233 0.706864
-0.0906884 0.702778 1.21531
-0.0190695 -0.433986 1.04738
-0.330079 0.431385 0.377259
0.827426 0.849097 1.18826
0.89207 0.0636782 1.24504
0.947113 0.946307 1.59966
0.272686 0.598712 0.499741
-0.246588 0.0102142 0.62165
-0.241544 -0.14406 0.400654
-0.17576 -0.283874 0.522134
-0.239393 -0.172498 0.437152
-0.213432 -0.198927 0.696242
0.410054 0.830694 2.83117
0.543819 0.653005 0.687352
0.929821 0.526512 1.67202
0.471931 0.62448 0.563477
0.111131 0.853747 1.19646
-0.199428 0.49992 0.488837
1.03403 0.442549 1.55478
0.981569 0.435026 1.45782
-0.221843 0.378603 0.537513
-0.191898 0.425192 0.605737
-0.165753 0.296183 0.318269
0.632517 0.292758 0.556324
0.921157 -0.631191 2.6465
0.868165 -0.246702 1.9453
1.22719 -0.586301 2.43075
0.738472 -0.203307 1.39318
-0.247561 -0.0755685 0.473294
0.642462 0.285484 0.53981
-0.201176 0.038317 0.717287
-0.263836 0.142183 0.954107
-0.29818 -0.0474711 0.739434
0.87197 0.0765905 1.25658
0.829852 0.0254734 1.04566
-0.244215 -0.18988 0.415502
-0.2423 -0.166782 0.360949
-0.118971 -0.256033 1.13235
0.798584 -0.246429 0.890284
0.18057 -0.536024 1.72707
-0.240942 -0.19946 0.446482
-0.0684932 -0.458556 1.13094
