1676
0.694083 -0.235027 0.725475
0.654901 -0.222938 0.395758
0.462202 -0.330707 0.701095
0.0336759 -0.0768568 0.257629
0.465754 -0.084639 0.307923
0.637134 -0.190105 0.733788
0.459259 -0.108813 0.660545
0.524099 -0.307224 0.768117
0.540035 -0.097991 0.801098
0.177347 0.0249916 0.342123
0.180658 -0.0903137 0.354574
0.169866 -0.0833259 0.345074
0.178506 0.00660321 0.351248
0.203568 0.0656982 0.377712
0.151835 -0.0049899 0.31218
0.274554 0.0291893 0.461242
0.182292 0.01804 0.355535
0.140562 0.0222497 0.303984
0.173557 0.0237256 0.338273
0.262816 -0.0332268 0.499382
0.185206 0.0206858 0.370002
0.180655 0.0326555 0.340811
0.240313 -0.0164641 0.425151
0.333259 0.00186912 0.647449
0.324164 -0.0276708 0.51751
0.180003 -0.0872115 0.352205
0.108028 0.0269906 0.297223
0.529435 0.0457583 -0.419713
0.404469 0.098064 -0.34954
0.383546 0.104754 -0.367466
0.403065 0.0965866 -0.356841
0.402157 0.0976246 -0.359794
0.47498 0.242953 -0.711903
0.48494 -0.112777 0.700734
0.340339 -0.147515 0.895531
0.0796829 -0.0616704 0.274865
0.386989 -0.0654697 0.5903
0.341697 -0.0749388 0.545505
-0.112211 -0.131704 0.278498
-0.103726 -0.130219 0.301274
0.672713 -0.241986 0.648564
-0.1136 -0.138696 0.317587
-0.116784 -0.135463 0.28549
0.38499 0.174485 -0.354914
0.510847 -0.0791002 0.0926576
0.468248 -0.0731209 0.130849
0.578663 -0.0454321 0.021683
1.00806 -0.155308 -0.253263
0.574176 -0.0511947 0.0354354
0.570727 -0.0509943 0.034977
0.569074 0.0664613 0.0738757
0.547152 0.106066 -0.216851
0.511332 0.142518 -0.1918
0.553279 0.137234 -0.219635
0.536555 0.0610814 -0.236393
0.553629 0.0550087 -0.226285
0.550004 0.0566039 -0.224962
0.555457 0.122887 -0.202785
0.551677 0.0739389 -0.23003
0.533179 0.0645755 -0.245426
0.554331 0.0597609 -0.226779
0.537874 0.0541522 -0.241027
0.526401 0.0627548 -0.241917
0.533603 0.0620775 -0.242526
0.503575 0.071269 -0.267501
0.560915 0.125396 -0.202758
0.223874 0.285131 -0.423745
0.419817 0.186116 -0.263718
0.2301 -0.0207104 0.413558
0.199643 0.0163349 0.369247
0.21613 0.0302323 0.399241
0.352469 0.0428176 0.548351
0.200615 0.0246179 0.361089
0.467344 0.183587 -0.223502
0.40677 0.198954 -0.274398
0.151861 0.0807762 0.325706
0.174465 0.031105 0.35334
0.546706 0.0795195 -0.224585
0.53066 -0.0182881 0.0877371
0.547322 -0.0948361 0.045574
0.531152 -0.0180697 0.0884776
0.571478 0.0700176 0.0683464
0.572553 0.0593435 0.0594947
0.598129 0.045099 0.0456928
0.4788 -0.0512432 0.131068
0.582602 0.111534 -0.0857296
0.614821 0.0519515 -0.00103632
0.60376 -0.00431875 0.0238974
0.419338 0.0917795 -0.341359
0.411566 0.098245 -0.345995
0.417914 0.191951 -0.265781
0.566914 0.0316094 -0.372584
0.56153 0.0368335 -0.377104
0.414744 0.092274 -0.347277
0.492784 0.239975 -0.72516
0.389975 0.178969 -0.319059
0.440596 0.187006 -0.230508
0.404659 0.167063 -0.304056
0.415859 0.193122 -0.259222
0.500346 0.0652121 -0.266048
0.47653 0.182764 -0.206845
0.417237 0.189845 -0.264945
0.442175 0.184528 -0.232914
0.423108 0.0890714 -0.337727
0.480894 0.175739 -0.202786
0.419174 0.0916047 -0.341346
0.40663 0.170336 -0.30753
0.270313 0.222779 -0.381184
0.474983 0.181894 -0.202273
0.425418 0.19091 -0.236128
0.423593 0.189899 -0.235979
0.418823 0.192332 -0.266272
0.404849 0.199372 -0.271554
0.556956 0.127161 -0.201902
0.55131 0.127585 -0.203746
0.543676 0.131977 -0.197551
0.436978 0.185592 -0.23189
0.539149 0.131341 -0.19725
0.524315 0.138402 -0.202668
0.339391 0.251927 -0.263553
0.396901 0.176937 -0.361769
0.442057 0.215889 -0.19237
0.423441 0.234917 -0.229222
0.50294 -0.100568 0.733951
0.587624 -0.189249 0.268061
0.435414 -0.03178 0.164003
0.564539 -0.145558 0.632458
0.437562 -0.0328831 0.176007
0.557695 -0.297528 0.749808
0.384204 0.00211342 0.374178
0.332173 0.0832323 0.338875
0.302266 0.0987262 0.323682
0.27719 -0.0291386 0.433644
0.0635338 0.0273976 0.0508767
0.0618043 0.023982 0.051976
0.284975 -0.0463392 0.463271
0.358275 0.190725 -0.336933
0.389398 0.103364 -0.360698
0.388375 0.167255 -0.364926
0.383962 0.130108 -0.375513
0.391053 0.102567 -0.36509
0.386952 0.112201 -0.368274
0.457025 0.320545 -0.663204
0.395288 0.17145 -0.352544
0.386735 0.166032 -0.357114
0.560115 0.0318333 -0.855823
0.394463 0.102718 -0.361854
0.44212 0.0523688 -0.794422
0.483086 0.224021 -0.455912
0.462654 0.221602 -0.438122
0.63131 0.410506 -0.760218
0.468894 0.31741 -0.639606
0.419868 0.323408 -0.603387
0.522062 0.388646 -0.66558
0.608331 -0.282703 0.742939
0.385938 -0.037032 0.197259
0.557008 -0.146308 0.752155
0.531927 -0.273168 0.734514
0.435215 -0.0681002 0.184937
0.440262 -0.0337027 0.175352
0.648343 -0.178774 0.673156
0.645496 -0.153937 0.746118
0.370469 0.139938 -0.431525
0.37044 0.183526 -0.338212
0.39051 0.1678 -0.356153
0.39151 0.162428 -0.355076
0.378564 0.366564 -0.542646
0.392479 0.219768 -0.404688
0.409009 0.223771 -0.404104
0.390397 0.102644 -0.364051
0.390994 0.101949 -0.358534
0.398915 0.0997374 -0.354703
0.387712 0.105915 -0.370856
0.385954 0.104402 -0.366253
0.351496 0.13677 -0.412533
0.401244 0.0976935 -0.35846
0.389595 0.10021 -0.364674
0.379281 0.102907 -0.375294
0.379917 0.142428 -0.420853
0.317225 0.0722779 0.434847
0.155806 0.0122575 0.328694
0.179371 -0.0866506 0.349104
0.112342 0.019878 0.281546
0.112139 0.0244835 0.28492
0.131417 0.0248666 0.303051
0.130337 0.00366954 0.287261
0.163034 -0.165727 0.508399
0.211335 -0.150314 0.495852
0.471966 -0.0818324 0.307758
0.456554 0.268436 -0.639535
0.358331 0.243932 -0.241149
0.19564 0.203229 -0.294965
0.431328 0.230139 -0.222145
0.161759 0.231004 -0.389416
0.489654 0.1719 -0.148167
0.552599 0.0763953 -0.226885
0.308662 0.203074 -0.089357
0.575453 0.158662 -0.130477
0.424309 0.17625 -0.270198
0.500102 0.159602 -0.407508
0.495416 0.196711 -0.230748
0.411428 0.0928474 -0.34627
0.499761 0.177962 -0.206401
0.535668 0.176848 -0.251307
0.411416 0.218108 -0.292728
0.490464 0.157841 -0.401159
0.376083 0.232325 -0.283417
0.524242 0.14384 -0.20442
0.490401 0.173516 -0.197851
0.111314 0.194078 -0.226416
0.122888 0.189556 -0.210089
0.524376 0.0680823 -0.263693
0.237998 0.213608 -0.181459
0.109837 0.193631 -0.225905
0.473885 0.180092 -0.203476
0.542312 0.131992 -0.205102
0.423092 0.16003 -0.279874
0.109206 0.194563 -0.227475
0.105893 0.196094 -0.229443
0.453015 0.206282 -0.215303
0.295918 0.293594 -0.274134
0.505612 0.136403 -0.184706
0.426106 0.191056 -0.236442
0.485641 0.172343 -0.198845
0.504748 0.162715 -0.411599
0.52807 0.143494 -0.204606
0.493514 0.178362 -0.194652
0.368901 -0.0761045 0.575901
0.34897 -0.151224 0.934205
0.359738 -0.0741814 0.626262
0.198651 0.017199 0.368985
0.463979 -0.110609 0.837023
0.356305 -0.0136775 0.541108
0.216362 -0.155015 0.508306
0.22806 -0.0150388 0.48224
0.135591 0.0208603 0.306395
0.159241 0.0489841 0.33347
0.528705 -0.1361 0.903936
0.133453 0.0210699 0.307928
0.169152 -0.165682 0.520207
0.179027 0.0324647 0.338765
0.150925 -0.0726556 0.317872
0.433882 -0.10807 0.675196
0.370522 -0.0789367 0.626984
0.415805 0.0455615 0.204215
0.190322 0.0381851 0.3416
0.185281 0.0308477 0.336222
0.499278 0.069125 -0.268186
0.389736 0.175757 -0.353253
0.408674 0.173218 -0.307229
0.533963 0.190003 -0.243629
0.320822 0.16066 -0.376834
0.596523 0.149016 -0.31781
0.418313 0.166746 -0.292783
0.387341 0.102269 -0.359605
0.439406 0.168217 -0.26567
0.42082 0.0950035 -0.336866
0.615756 0.234536 -0.297165
0.47298 -0.124101 0.749955
0.387802 0.103384 -0.363478
0.393722 0.0981654 -0.363004
0.392289 0.0972012 -0.359445
0.406191 0.0967281 -0.347543
0.526657 0.0555196 -0.408183
0.397472 0.0972746 -0.356171
0.328536 0.159315 -0.37939
0.366523 0.188054 -0.333662
0.370975 0.186365 -0.333247
0.452002 0.277787 -0.643155
0.405737 0.0983993 -0.346687
0.386348 -0.050775 0.224295
0.0264021 -0.0496581 0.217015
0.0330247 0.0111681 -0.000319446
0.236134 0.109474 0.38606
-0.104589 -0.0539718 0.248644
-0.0793924 -0.0875243 0.240576
0.0293493 0.0206769 0.000116683
0.0497442 -0.0645933 0.260803
0.135406 -0.0784026 0.338948
0.0681044 -0.0838063 0.251963
0.092611 -0.0815812 0.352046
0.0468734 -0.0825083 0.240263
0.0467679 -0.0554711 0.246925
-0.0122626 -0.0507451 0.161001
0.0506242 -0.0605166 0.245012
-0.0113741 -0.0492221 0.170592
0.470282 -0.317367 0.722076
0.582099 -0.161191 1.00766
0.415858 0.0438191 0.189402
0.501446 0.059704 0.116007
0.579343 -0.0450486 0.0212449
0.591625 -0.00838111 0.042624
0.444933 -0.0907177 0.146872
0.472341 0.184524 -0.224476
0.339574 0.253894 -0.26476
0.436778 0.236576 -0.240025
0.20167 0.209509 -0.300626
0.477599 0.190659 -0.216157
0.124451 0.188114 -0.208207
0.441323 0.18503 -0.222514
0.0680554 -0.0717718 0.278226
-0.0890611 -0.0486027 0.216701
0.0373751 -0.0522757 0.231709
0.0741837 -0.0643014 0.276878
0.0569974 -0.0526917 0.302877
0.282398 0.0677305 0.289997
0.237602 0.252862 -0.310614
0.493285 0.186691 -0.202671
0.525563 0.14441 -0.202781
0.533949 0.0611559 -0.235454
0.398038 0.0994811 -0.354144
0.551546 0.0525145 -0.226806
0.518658 0.14329 -0.20021
0.499286 0.134801 -0.182528
0.393396 0.112365 -0.362408
0.389195 0.156223 -0.357865
0.378848 0.163979 -0.358948
0.391832 0.163588 -0.354855
0.380827 0.169346 -0.356125
0.174864 -0.30127 0.639845
0.0480239 -0.0407855 0.24607
0.105403 -0.0548091 0.275393
0.61856 -0.24553 0.358736
0.00731663 -0.0587889 0.186545
0.0308906 -0.0524025 0.219674
0.159902 -0.0818907 0.32703
0.125209 -0.182342 0.511935
0.0359076 -0.0734373 0.246065
0.0696021 -0.0659391 0.269982
0.115616 -0.0749692 0.372499
0.0654189 0.0209511 0.0553916
0.0790295 -0.0475383 0.245663
0.0599749 -0.0488169 0.281652
-0.125022 -0.119655 0.282855
0.0665032 -0.0906511 0.263362
0.127912 -0.0617 0.281792
0.0778799 -0.0845457 0.262282
-0.102501 -0.0585296 0.258379
-0.122526 -0.121621 0.282609
0.48052 0.0264317 0.142797
0.529041 -0.0422903 0.092562
0.468148 -0.0842295 0.126648
0.489329 0.0313584 0.140268
0.576811 -0.047858 0.152156
0.512545 0.0639509 0.127065
0.487909 0.0519648 0.128648
0.534564 -0.0389297 0.0813851
0.546686 -0.0454547 0.0645048
0.448544 -0.0939938 0.143697
0.426367 -0.0946577 0.165435
0.426565 -0.0926226 0.166545
0.401365 0.225809 -0.305466
0.438098 0.191038 -0.266238
0.504044 0.0659143 -0.268469
0.510307 -0.0213167 0.105206
0.564169 0.0655882 0.0711233
0.515555 -0.0196969 0.100734
0.542111 -0.0393803 0.0843283
0.49265 -0.0701951 0.111041
0.532291 -0.0848736 0.0793388
0.601484 0.0518322 0.0510319
0.251369 -0.0280463 0.431565
0.141273 -0.083414 0.34823
0.445279 -0.115112 0.705942
0.343867 0.041219 0.522898
0.0673502 -0.0591728 0.298425
0.401479 0.00680123 0.413878
0.235588 -0.00873719 0.413374
0.40855 -0.0564602 0.245838
0.0714322 -0.0671041 0.271451
0.395747 0.0981632 -0.35503
0.389092 0.175382 -0.352492
0.384472 0.168215 -0.357322
0.588414 0.153776 -0.32544
0.425704 0.0990841 -0.328698
0.589921 0.154395 -0.322746
0.320242 0.161126 -0.380612
0.431507 0.0913079 -0.324406
0.490932 0.143218 -0.149884
0.495297 0.134859 -0.158165
0.488976 0.146632 -0.154733
0.491445 0.141304 -0.155201
0.547367 0.108875 -0.215771
0.553449 0.0822815 -0.207332
0.0957239 0.0197122 0.0757345
0.233371 0.104918 0.362831
0.123316 -0.0780938 0.383314
0.0594309 0.0296567 0.0440615
0.05762 0.0290398 0.045865
0.282796 0.0922521 0.294407
0.0642722 0.0261263 0.0497656
0.157097 -0.0782357 0.322436
0.400447 0.0991727 -0.352136
0.515765 0.263675 -0.781909
0.590937 -0.0276464 0.625035
0.672228 -0.270461 0.635706
0.634028 -0.211364 0.595598
0.24057 -0.0332868 0.443309
0.525507 -0.101284 0.636984
0.610124 -0.232957 0.424808
0.175667 -0.0880287 0.344796
0.349316 0.0410998 0.532992
0.173011 0.0279761 0.335218
0.0697946 -0.0649715 0.276794
0.375312 0.0293436 0.583583
0.0827994 -0.0890412 0.276602
0.0829284 -0.0944309 0.273173
0.0730155 -0.0897932 0.258833
0.131117 -0.0647224 0.29088
0.0797209 -0.0742669 0.271816
0.299092 -0.0235268 0.487562
0.610769 0.145708 -0.141095
0.541493 0.132454 -0.204536
0.598075 0.0504508 0.0500316
0.73101 0.124077 -0.14479
0.533425 0.17614 -0.250466
0.537227 0.173642 -0.252844
0.497436 0.135585 -0.158994
0.360856 0.189262 -0.333229
0.326821 -0.064032 0.548414
0.317356 -0.00266773 0.429411
0.195472 -0.244997 0.651446
-0.136854 -0.0918689 0.262643
0.0295841 -0.0675104 0.250127
-0.152973 -0.0838118 0.244157
-0.108519 -0.05698 0.255472
0.497798 0.13718 -0.183216
0.505314 0.136407 -0.187768
0.267546 0.312973 -0.334794
0.404637 0.199764 -0.265651
0.488465 0.182518 -0.20134
0.434448 0.227114 -0.222016
0.515045 0.14131 -0.188762
0.431539 0.165161 -0.285454
0.4635 0.244418 -0.2329
0.314598 0.228696 -0.274825
0.370279 0.235632 -0.233228
0.389141 0.240118 -0.223547
0.403794 0.186715 -0.329315
0.438331 0.235727 -0.238468
0.335805 0.261756 -0.27902
0.296283 0.202727 -0.089153
0.437975 0.175639 -0.263719
0.494566 0.140935 -0.145986
0.0467997 -0.07642 0.237319
0.0727062 -0.0605788 0.270584
0.0374707 -0.0676696 0.265457
0.047932 0.00081701 0.0137339
0.083124 0.0211667 0.0769997
0.0848322 0.023044 0.0736293
0.32141 -0.0436295 0.485676
0.0685707 0.0219013 0.0562229
0.0710058 -0.0659871 0.267637
0.0398693 -0.0514118 0.221768
0.462839 -0.0370312 0.153815
0.445061 -0.0893456 0.148461
0.529723 -0.0250035 0.095317
0.445224 -0.0898314 0.149051
0.462817 -0.0358165 0.153173
0.454617 -0.0306273 0.154564
0.478973 -0.0477405 0.126087
0.514454 0.0329145 0.119506
0.494952 -0.089725 0.102677
0.460886 -0.0460622 0.15362
0.489176 -0.071532 0.1149
0.547646 -0.0607982 0.0560247
0.498964 -0.0812644 0.103227
0.508671 -0.0422034 0.103227
0.713569 0.146923 -0.129914
0.703955 0.073501 -0.0294683
0.562534 0.105686 0.0995058
0.432608 -0.0339903 0.170821
0.478448 -0.0264583 0.131821
0.431827 0.168974 -0.266553
0.416054 0.0953554 -0.339114
0.409687 0.0955315 -0.34515
0.388257 0.16907 -0.360738
0.385403 0.164698 -0.360168
0.552878 0.173886 -0.259311
0.587568 0.152521 -0.327213
0.390767 0.106502 -0.373074
0.368163 0.185934 -0.329474
0.416869 0.0961522 -0.339509
0.389653 0.138814 -0.363639
0.438204 0.171242 -0.265344
0.482998 0.17634 -0.204776
0.553588 0.170707 -0.241613
0.501156 0.0694156 -0.266311
0.417821 0.0946723 -0.338629
0.361378 0.269916 -0.389595
0.494627 -0.0707862 0.110285
0.444748 -0.0323507 0.172847
0.514359 -0.0195398 0.0992586
0.491987 -0.0714014 0.112501
-0.110244 -0.13491 0.301691
0.660034 -0.262851 0.387451
-0.120247 -0.142465 0.294023
-0.125789 -0.139866 0.306644
-0.118204 -0.133979 0.291349
0.163674 -0.0752727 0.303391
0.11108 0.0221458 0.282057
0.0920173 0.130002 0.372208
0.332392 0.0784593 0.0270902
0.533326 0.0576283 -0.23984
0.176121 0.319837 -1.05213
0.438063 -0.033049 0.17689
0.645266 -0.168267 0.747633
0.313429 -0.314942 0.689528
0.404164 0.0955172 -0.355293
0.401657 0.0998074 -0.352296
0.535856 0.0612668 -0.236217
0.714077 0.0740822 -0.0406958
0.488976 0.140197 -0.155844
0.538974 0.171737 -0.244866
0.0561858 -0.0819603 0.248768
0.0792242 -0.0666178 0.270574
0.675466 -0.259047 0.648287
-0.0766471 -0.13771 0.327212
-0.100807 -0.127805 0.299715
0.566215 -0.109305 0.859038
0.0365716 -0.058757 0.196507
0.710284 -0.25562 0.663464
0.554343 -0.211508 0.515846
0.158821 -0.0805183 0.330903
0.0543278 -0.0783514 0.240759
0.0585361 0.0255839 0.047069
0.0640469 0.0264282 0.0502835
-0.0978043 -0.0489798 0.256347
0.501487 -0.00532192 0.526916
0.0582102 0.0202732 0.0528431
0.46541 -0.00582194 0.483051
-0.0115992 -0.0453505 0.161634
0.111372 -0.0660643 0.277169
0.346148 -0.00563777 0.467702
0.341769 0.0985732 0.344289
0.33205 0.253837 -0.270946
0.237379 0.212237 -0.178216
0.43112 0.209185 -0.231457
0.161815 -0.0788261 0.326546
0.130829 0.0967944 0.305346
0.13252 0.0990884 0.304844
0.131907 0.0877599 0.307059
0.179067 0.0323193 0.336279
0.140206 0.096926 0.292359
0.178351 -0.0867959 0.347921
0.367496 0.14435 -0.422419
0.416658 0.188319 -0.332914
0.408419 0.196991 -0.275781
0.397501 0.217823 -0.302337
0.47881 0.190632 -0.21175
0.657596 0.155977 -0.24758
0.470623 0.185432 -0.223243
0.490891 0.175525 -0.203915
0.423251 0.17056 -0.271186
0.370943 0.189403 -0.326306
0.420334 0.164744 -0.293502
0.563221 -0.0558918 0.0461976
0.490125 0.049585 0.116458
0.54095 -0.0394553 0.0957905
0.417096 0.167529 -0.29569
0.399914 0.100264 -0.352548
0.389524 0.183566 -0.413045
0.452146 0.222766 -0.668015
0.399476 0.100071 -0.354809
0.387789 0.0999423 -0.361072
0.390453 0.164796 -0.356497
0.404953 0.0993624 -0.350403
0.404234 0.0995242 -0.349964
0.397931 0.10231 -0.355579
0.409781 0.0961469 -0.344954
0.39197 0.170073 -0.358932
0.383167 0.171818 -0.352265
0.382776 0.125934 -0.366929
0.38693 0.104593 -0.366907
0.385476 0.169026 -0.355484
0.388723 0.162052 -0.354718
0.512562 0.156865 -0.419413
0.50796 0.158936 -0.416173
0.387653 0.163313 -0.355499
0.390791 0.162699 -0.354113
0.271136 0.0483613 0.295014
0.33406 0.0589453 0.465269
0.206897 0.0959163 0.322965
0.180265 0.0854109 0.284801
0.175243 0.0210602 0.325277
0.122958 0.0619187 0.300588
0.166148 -0.165557 0.529574
0.329387 0.0748521 0.428062
0.16376 0.0292448 0.3479
0.690482 -0.389594 0.671381
0.481828 0.226414 -0.452714
0.390364 0.104756 -0.367016
0.417777 0.320324 -0.597268
0.815178 0.471574 -0.952423
0.461024 0.261456 -0.642616
0.453321 0.0518086 -0.512134
0.524597 0.0511899 -0.425215
0.499364 0.393318 -0.648419
0.382939 0.105553 -0.376179
0.385059 0.105761 -0.375785
0.442311 -0.0438673 0.166217
0.587373 -0.0151987 0.033995
0.620613 0.0537327 0.032392
0.652186 0.154246 -0.054943
0.584159 0.0696968 0.0615988
0.502672 0.0698635 -0.264296
0.554441 0.170985 -0.241077
0.419775 0.094746 -0.339163
0.540682 0.177026 -0.250023
0.536423 0.176793 -0.251536
0.409698 0.168955 -0.301854
0.38976 0.0995245 -0.366589
0.383589 0.172011 -0.352678
0.415293 0.167901 -0.295859
0.568128 0.0325355 -0.370782
0.605205 0.229013 -0.291942
0.420147 0.0956406 -0.337086
0.0770034 -0.0906796 0.260755
0.450971 -0.105355 0.709272
0.0299891 -0.0720051 0.21296
0.0708702 -0.0860101 0.260046
0.158169 -0.0834914 0.336462
0.235829 -0.0317695 0.404904
0.481943 -0.134529 0.835012
0.409073 0.0958429 -0.353875
0.358628 0.138271 -0.418494
0.394869 0.185571 -0.322572
0.420904 0.0919655 -0.331905
0.390907 0.101943 -0.36028
0.421629 0.0935128 -0.332982
0.384333 0.178417 -0.409897
0.421892 0.093189 -0.335426
0.480587 0.243671 -0.722197
0.379181 0.102712 -0.374839
0.409233 0.170348 -0.304755
0.422155 0.0934994 -0.331528
0.428567 0.0876319 -0.332902
0.50761 0.15957 -0.418901
0.410383 0.170865 -0.303429
0.381798 0.105735 -0.372486
0.541589 0.167688 -0.372864
0.329312 0.158806 -0.379513
0.386082 0.212018 -0.400905
0.372032 0.185142 -0.339085
0.385108 0.157386 -0.356664
0.397356 0.0969215 -0.355584
0.266657 0.161404 -0.16625
0.419915 0.219794 -0.176498
-0.1045 -0.0595125 0.261067
0.0464616 -0.0818696 0.23626
-0.100958 -0.129751 0.301405
0.461013 -0.101501 0.698577
0.0616696 -0.0710313 0.294617
0.028801 -0.0560824 0.219283
0.153427 -0.0863294 0.353025
0.0472897 -0.0531515 0.232919
0.0866498 -0.0663035 0.280031
0.0380495 -0.0526481 0.231988
0.251993 -0.0157927 0.459051
0.411397 -0.0694259 0.601147
-0.106105 -0.056925 0.251302
0.544992 -0.0413655 0.126748
0.571295 0.086136 0.0633636
0.495337 0.0530955 0.136858
0.492282 0.0498778 0.134696
0.502873 -0.0396191 0.10281
0.477575 0.0150522 0.146094
0.52391 -0.0352734 0.085579
0.449216 -0.0390632 0.163615
0.451685 0.0256071 0.180491
0.45646 -0.0289274 0.147386
0.420158 0.044651 0.188895
0.507168 0.0565594 0.146083
0.588497 -0.00827786 0.0322349
0.698751 -0.0669738 -0.1322
0.570346 -0.0103847 0.0180465
0.592057 0.0979913 -0.0889353
0.579357 0.0882592 0.065102
0.581935 0.0902159 0.0734845
0.614993 -0.0466445 0.155843
0.419976 0.0454427 0.186661
0.346476 -0.286359 0.648386
0.20131 -0.261589 0.695816
0.33987 -0.155283 0.89165
0.70577 -0.26977 0.680289
0.196398 0.0223867 0.36916
0.370703 -0.0618918 0.184091
0.341261 0.0855563 0.351392
0.407119 0.201977 -0.268283
0.501131 0.135212 -0.18296
0.544169 0.0785628 -0.223131
0.392319 0.102058 -0.36298
0.543935 0.0882381 -0.221288
0.531454 0.138289 -0.19552
0.479739 0.191245 -0.211913
0.548463 0.110482 -0.214772
0.549533 0.123311 -0.213476
0.555816 0.0795726 -0.217
0.0791633 -0.0896393 0.277804
0.141018 -0.071753 0.298373
0.068383 0.0223302 0.0604668
0.201221 -0.0914844 0.377116
0.417064 -0.0603902 0.258301
0.0815263 -0.0659333 0.276025
0.453228 0.316789 -0.628
0.456675 0.207276 -0.213762
0.32179 -0.0667487 0.527584
0.578961 -0.253477 0.795635
0.43306 -0.101705 0.626125
0.312514 0.0223608 0.440903
0.374615 -0.0630138 0.185669
0.554004 -0.247073 0.75054
0.175958 0.0703899 0.35055
0.666898 -0.166402 0.686802
0.735152 -0.290253 0.658479
0.645984 -0.294167 0.8095
0.69442 -0.180157 0.802975
0.352326 -0.067853 0.527077
0.321232 0.0712548 0.442633
0.0851417 0.0278447 0.0702784
0.242911 0.0525731 0.253089
0.489408 0.177131 -0.194495
0.416358 0.211766 -0.159656
0.442539 0.190336 -0.266286
0.411529 0.202396 -0.266197
0.5272 0.137449 -0.198556
0.531237 0.136196 -0.194607
0.551603 0.0528846 -0.22752
0.553599 0.0725116 -0.21554
0.547928 0.130976 -0.181251
0.459065 -0.083858 0.12794
0.520627 -0.0389605 0.0819142
0.559718 0.0695434 0.056018
0.533989 -0.0379381 0.0867063
0.548629 0.132299 -0.178177
0.547947 0.106322 -0.217764
0.613666 0.140174 -0.142524
0.541285 0.172162 -0.242922
0.549172 0.125463 -0.217565
0.52265 0.0656157 -0.249948
0.679839 0.0685255 -0.0103706
0.680293 0.0682329 -0.00983131
0.525773 0.143376 -0.204123
0.420746 0.0448 0.188384
0.40177 -0.0393692 0.199387
0.49088 -0.0889041 0.111065
0.537262 -0.0395367 0.0858935
0.459134 -0.0374495 0.153338
0.4428 -0.0418098 0.166642
0.500596 0.0537058 0.139103
0.493422 0.0518615 0.132322
0.519766 -0.0635608 0.0839028
0.488722 -0.0725548 0.11931
0.566534 0.0650999 0.0695948
0.456204 0.0119462 0.162924
0.415983 0.0446347 0.186559
0.410126 0.0452311 0.190522
0.509059 -0.0213125 0.104101
0.0631387 -0.0640197 0.264078
0.530445 0.13302 -0.193651
0.0513502 0.0251786 0.0457122
0.307447 -0.0377134 0.501772
0.372084 -0.0515923 0.611507
0.397131 0.172651 0.228104
0.323658 0.073393 0.447073
0.30458 0.1007 0.325886
0.225678 0.0996553 0.341724
0.308139 0.0975451 0.330874
0.39788 -0.00365534 0.39944
0.4288 -0.0739493 0.646318
0.527587 -0.148425 0.90434
0.0849214 0.023218 0.0775947
0.446316 0.00299269 0.438785
0.717189 -0.234329 0.372006
0.669984 -0.227997 0.370933
0.405897 -0.372617 0.788644
0.632349 -0.276979 0.481641
0.415379 -0.370108 0.774555
0.68522 -0.215119 0.351272
0.708372 -0.236358 0.335503
0.636443 -0.184335 0.340818
0.680708 -0.214472 0.348927
0.392144 -0.0951274 0.186456
0.440927 -0.0972536 0.215264
0.662754 -0.196138 0.355847
0.174247 -0.0795843 0.335685
0.357424 -0.0613262 0.179545
0.13744 0.0226445 0.305517
0.174582 -0.0137452 0.331049
0.373594 -0.0485413 0.20553
0.548124 0.134062 -0.218992
0.465641 0.212253 -0.435541
0.498904 0.0646183 -0.268143
0.513678 0.0660259 -0.271342
0.54111 0.128801 -0.201616
0.541299 0.13072 -0.2034
0.541483 0.137753 -0.219908
0.539957 0.137004 -0.219993
0.545007 0.168253 -0.237772
0.545819 0.0818867 -0.206856
0.482426 0.179775 -0.19948
0.466592 0.184439 -0.21899
0.465029 -0.127145 0.288565
0.147713 -0.142184 0.440133
0.0294841 0.0207768 -0.000302177
0.00116789 -0.140704 0.339098
0.16891 0.100459 0.26246
0.490529 0.146043 -0.153411
0.485735 0.144778 -0.154592
0.588424 0.140228 -0.10396
0.613889 0.141511 -0.14331
0.54771 -0.045309 0.11552
0.495892 -0.0711057 0.109891
0.490106 -0.0931229 0.106433
0.476351 -0.0284125 0.135811
0.613043 0.102866 -0.110863
0.63471 0.13381 -0.0586765
0.518445 0.0656851 -0.2573
0.461895 0.186095 -0.220745
0.441334 0.187371 -0.230309
-0.177531 -0.128785 0.269939
-0.173165 -0.142579 0.285885
-0.175314 -0.144073 0.293955
-0.11435 -0.137384 0.299034
-0.147804 -0.0816213 0.225347
-0.172509 -0.131196 0.287971
-0.169637 -0.126915 0.283923
0.508911 0.063221 -0.263769
0.477907 0.190588 -0.215626
0.416854 0.092747 -0.340549
0.515554 0.0640834 -0.252036
0.445757 0.188309 -0.265467
0.656367 -0.230897 0.632306
0.541635 -0.24896 0.649846
0.312524 -0.323878 0.671002
-0.0965325 -0.0442835 0.24764
-0.105231 -0.130477 0.295186
-0.0982311 -0.116576 0.255645
0.141653 -0.0776134 0.317299
0.0345367 -0.064143 0.234032
0.00568748 -0.0583928 0.241432
0.0212559 -0.0480534 0.248257
-0.00242314 -0.027069 0.141071
0.0763284 -0.0667152 0.222534
0.473064 0.28239 -0.660867
0.405018 0.0953574 -0.355019
0.395847 0.104702 -0.360904
0.455804 0.261622 -0.63562
0.383488 0.105553 -0.3693
0.387519 0.106597 -0.375912
0.384725 0.108026 -0.373971
0.382135 0.122288 -0.368252
0.524356 0.0455699 -0.422408
0.544447 0.0878728 -0.221807
0.610523 0.231314 -0.296288
0.545272 0.085973 -0.213833
0.549709 0.078869 -0.213527
0.632248 0.15368 -0.113087
0.0225394 -0.110507 0.255146
-0.110362 -0.141354 0.298472
0.582867 -0.219877 0.396065
0.337174 -0.067181 0.470949
0.494463 -0.134375 0.832292
0.378258 0.0382857 0.176619
0.0348059 0.018687 0.0058019
0.00645355 -0.122842 0.304484
0.0546186 -0.0789313 0.239956
0.0264411 -0.0491894 0.21673
0.0316041 0.0139921 0.0013283
0.032544 0.013885 0.000907529
0.050402 -0.0587586 0.258457
0.0373445 -0.0529398 0.231713
0.0634371 -0.063659 0.249333
0.0368536 -0.0583741 0.232279
-0.0188936 -0.0311021 0.169882
-0.104353 -0.0514311 0.272739
0.0624219 -0.0821838 0.249766
0.0348433 0.0193309 0.00667028
0.231847 0.102788 0.354827
0.106731 -0.0588204 0.27887
0.383233 0.167335 0.243781
0.0448884 -0.053231 0.23707
0.254111 -0.028146 0.425004
0.0278292 -0.050639 0.229722
-0.0960883 -0.048466 0.255104
0.0384827 -0.0632096 0.245227
0.486087 0.055894 0.127101
0.591669 0.0941689 0.0667387
0.518834 0.039422 0.116369
0.543253 -0.0448694 0.0627472
0.577049 0.0877316 0.0669547
0.0869255 0.0266524 0.0812817
0.656847 -0.243296 0.606054
0.0630834 0.0247062 0.0565719
0.0676057 -0.0724461 0.275945
0.0532113 0.0242551 0.0513449
0.69343 -0.262863 0.637799
0.100703 -0.0613348 0.291048
0.256404 -0.0374326 0.425038
0.0484014 -0.0592298 0.243293
0.038032 -0.0526714 0.228253
0.238306 -0.0304011 0.401261
0.0462573 -0.0834865 0.253511
0.0385532 -0.0663219 0.253424
0.0344048 -0.0758968 0.2217
0.0680203 -0.0925687 0.270631
0.0328073 -0.0721531 0.265972
0.140805 -0.0822095 0.343848
0.00509142 -0.0654903 0.186543
0.120181 -0.0578655 0.25906
0.078324 -0.0661606 0.265528
0.0715748 -0.0659182 0.293318
0.0816877 -0.062441 0.294177
-0.0076236 -0.0509221 0.161868
0.0675997 -0.0454296 0.274999
0.0781391 -0.0651749 0.261068
0.0514436 -0.0335258 0.259987
0.101526 -0.0569512 0.240004
0.0499044 -0.0548205 0.24284
0.0811207 -0.0662673 0.284005
0.0300166 -0.053202 0.229311
0.0789438 -0.0625186 0.257758
-0.0955743 -0.101208 0.284842
0.178179 -0.0908913 0.356409
0.0447666 -0.054422 0.23297
0.0206955 -0.103361 0.271532
0.0588901 0.0247091 0.0529204
0.0822764 -0.107353 0.31997
0.0814885 -0.0932305 0.271151
0.0678091 -0.0832957 0.258661
0.152016 -0.0790947 0.319597
0.0232282 -0.0949341 0.24979
0.0449558 -0.0568394 0.240617
0.0548266 -0.0510205 0.291605
0.0210705 -0.114122 0.266041
0.0466165 -0.0313131 0.240175
0.131841 -0.0726997 0.310127
0.0643601 0.0274775 0.053823
0.0446885 -0.0571421 0.244719
-0.108654 -0.0879314 0.271165
0.0700945 -0.0654996 0.286665
0.0734145 -0.0626321 0.272597
0.0469423 -0.0560702 0.255055
0.134402 -0.0734551 0.296432
-0.0244039 -0.053076 0.194165
-0.0946775 -0.100333 0.281094
0.0577232 0.0244764 0.0508454
0.00553898 -0.0650518 0.186425
0.0440541 -0.0545738 0.234643
0.059908 -0.0864691 0.263572
0.167632 -0.0819221 0.314914
0.18813 0.207921 -0.301345
0.533534 0.142388 -0.21004
0.359529 0.238529 -0.292102
0.547596 0.0726706 -0.22203
0.553411 0.110836 -0.210008
0.535759 -0.147456 0.346311
0.0527534 0.0256903 0.0508091
-0.0237522 -0.033076 0.173948
0.101326 -0.0538966 0.250789
0.340096 0.0413199 0.502228
-0.106359 -0.0483008 0.267872
0.0687943 -0.0867188 0.271526
0.050201 -0.059115 0.235674
0.00535902 -0.0605529 0.192707
0.0844133 -0.0415817 0.278467
0.0367441 0.00659187 0.0217724
0.0331879 -0.0760081 0.21729
0.156945 -0.0796473 0.327443
0.135599 -0.0736073 0.29815
0.0267656 -0.0679846 0.208594
0.143123 -0.0795322 0.335628
0.081507 -0.0686765 0.278872
0.139703 -0.0762178 0.309699
0.0830337 -0.0418255 0.276814
-0.00871834 -0.0519199 0.164785
0.372584 0.193051 -0.333718
0.618259 0.158115 -0.1301
0.615272 0.15944 -0.136985
0.623412 0.139252 -0.150061
0.6126 0.145186 -0.142547
0.729553 0.123507 -0.147026
0.72927 0.123017 -0.14263
0.503428 0.0704092 -0.264834
0.432601 0.209357 -0.231668
0.493806 0.174513 -0.149586
0.346391 0.087572 -0.00984268
0.490675 -0.0719522 0.112462
0.493966 -0.0708871 0.112227
0.448935 -0.0809915 0.148166
0.488737 -0.0790159 0.106531
0.526211 -0.064626 0.0856559
0.485293 -0.0490504 0.120218
0.444629 -0.0416114 0.167549
0.569862 0.063681 0.0679064
0.575048 0.0445065 0.0683422
0.43004 -0.0453907 0.177568
0.481164 -0.0439575 0.130208
0.491868 -0.0705749 0.108307
0.45542 -0.0730458 0.14697
0.511074 0.0346249 0.122039
0.482151 0.0545557 0.130889
0.446999 0.0238997 0.175698
0.451419 -0.0822503 0.146849
0.484761 -0.048479 0.119805
0.451417 -0.0770873 0.148039
0.539022 -0.039916 0.0771054
0.493027 -0.0706794 0.111702
0.512753 -0.0206864 0.100448
0.486911 -0.0713409 0.113199
0.460787 -0.0372302 0.15481
0.436 0.1908 -0.268037
0.48051 0.056434 0.134675
0.417229 0.0430142 0.183865
0.47801 -0.0592649 0.127154
0.481981 0.0574403 0.136129
0.528884 -0.0831267 0.0790993
0.524166 -0.073596 0.0812656
0.488222 0.0506227 0.131925
0.526826 -0.0390709 0.0907421
0.572474 0.0667993 0.0743553
0.572886 0.0639911 0.0698132
0.491042 0.0319305 0.142199
0.55655 -0.0135639 0.0665213
0.945272 -0.141122 -0.179723
0.592762 0.0454352 0.0551651
0.584309 -0.017196 0.0400853
0.629404 0.0859867 0.0329445
0.614519 0.0522345 0.030081
0.629969 0.0870623 0.0320542
0.583039 -0.017327 0.0395057
0.507967 0.0619099 -0.254606
0.529752 0.144749 -0.207161
0.62391 0.139748 -0.047764
0.310896 0.101009 -0.0589698
0.299023 0.0994438 -0.0610301
0.563371 0.156781 -0.140943
0.488526 0.140446 -0.155603
0.361877 0.0902879 -0.0328539
0.581523 0.0876429 0.0626252
0.526164 -0.0899182 0.0829897
0.543321 -0.0861017 0.0472243
0.579144 0.0893812 0.0644415
0.559149 0.107295 0.101789
0.579516 0.0872282 0.0654784
0.704337 0.00685601 -0.115166
0.526157 0.0595847 -0.242206
0.638392 0.136781 -0.138385
0.722013 0.00767149 -0.11438
0.544873 0.0605375 -0.225659
0.619877 0.136225 -0.154481
0.503986 0.0664509 -0.256851
0.550046 0.105614 -0.213942
0.511246 0.139381 -0.192733
0.556592 0.0783261 -0.216129
0.608165 0.134453 -0.0926262
0.501268 0.0564299 0.12561
0.594151 0.0950872 -0.108585
0.59927 0.117397 -0.0829333
0.610721 -0.00375965 0.0252667
0.626138 0.0758154 0.0309695
0.664663 0.00130795 -0.0670073
1.02584 -0.15532 -0.267271
0.553976 -0.0140271 0.0637459
0.578226 -0.044862 0.0196682
0.556495 0.0451842 0.0863826
0.509525 -0.0977313 0.0841191
0.530525 -0.0251388 0.0929152
0.555989 0.0446168 0.0857045
0.385558 -0.0902367 0.18795
0.438199 -0.109308 0.201454
0.613935 -0.276987 0.759175
0.459342 -0.113981 0.209398
0.619811 -0.140141 0.73729
0.636751 0.0602769 0.534203
0.328755 0.0780233 0.3656
0.347897 0.0838428 0.366868
0.427617 -0.00648768 0.429078
0.405547 0.000788632 0.402352
0.538232 -0.272744 0.736522
0.590734 0.12383 -0.0976797
0.617641 0.151157 -0.126265
0.55438 0.0842777 -0.21083
0.539219 0.10411 -0.209837
0.720358 0.120829 -0.143987
0.61901 -0.0060619 -0.0348417
0.68067 0.0680528 -0.0212577
0.718572 0.0764301 -0.0396238
0.399959 -0.0402689 0.207248
0.482854 -0.079222 0.107546
0.493105 -0.0832911 0.109146
0.548983 -0.0611628 0.0575817
0.500402 0.135591 -0.183387
0.415967 0.195303 -0.256759
0.498889 0.137995 -0.182993
0.487414 0.177032 -0.207914
0.548475 0.0575962 -0.224476
0.432108 0.170791 -0.277658
0.428837 0.167155 -0.273657
0.428208 0.160854 -0.284075
0.230443 -0.00521528 0.416713
0.380681 -0.0448836 0.212978
0.41396 -0.0688349 0.626124
0.499295 0.137982 -0.18315
0.726245 0.15347 -0.129097
0.925406 -0.11146 -0.177204
0.529121 -0.0182491 0.0871812
0.590839 -0.00736641 0.0333082
0.57132 -0.0103035 0.0190447
0.614903 -0.00292207 0.0168612
0.536138 0.0444129 0.0954642
0.627489 -0.0495895 0.170924
0.576847 -0.0496611 0.0291846
0.58142 -0.0425379 0.0236462
0.603384 0.130179 -0.0943021
0.695063 0.0622021 -0.0358298
0.708313 0.0719884 -0.0394511
0.923597 -0.11209 -0.176793
0.538441 0.0421703 0.098768
0.513767 -0.0945202 0.0879653
0.54841 -0.0614477 0.0561731
0.485681 -0.0720909 0.120856
0.494213 0.144728 -0.150555
0.424833 0.164939 -0.275468
0.569974 0.4141 -0.712198
0.622221 0.405337 -0.752277
0.417118 0.320603 -0.596343
0.401266 0.20894 -0.615224
0.571583 0.42204 -0.717519
0.779201 0.442666 -0.907012
0.402108 0.213896 -0.622825
0.47199 0.329897 -0.64416
0.388624 0.149364 -0.358093
0.376583 0.102635 -0.373328
0.381963 0.107116 -0.37877
0.361752 0.142935 -0.41954
0.381585 0.129354 -0.374912
0.3785 0.106652 -0.377184
0.390691 0.101017 -0.360698
0.373903 0.160124 -0.359726
0.382713 0.170089 -0.364386
0.368702 0.139492 -0.430625
0.390457 0.169537 -0.351346
0.37787 0.142827 -0.418962
0.184751 0.19065 -0.505508
0.367223 0.180949 -0.344081
0.355375 0.188167 -0.336139
0.377413 0.179627 -0.348761
0.384566 0.166272 -0.364705
0.555546 0.398323 -0.695478
0.376642 0.179373 -0.348928
0.369793 0.139563 -0.430481
0.390356 0.111692 -0.365739
0.239986 0.419336 -1.37176
0.574238 0.398646 -0.711263
0.460791 0.219405 -0.437052
0.650999 0.438631 -0.786512
0.577692 0.405601 -0.714915
0.414302 0.321866 -0.593189
0.390964 0.111876 -0.366044
0.636677 0.403201 -0.768948
0.385738 0.107571 -0.374231
0.461608 0.262039 -0.643761
0.469643 0.318603 -0.640681
0.253914 0.19379 -0.536666
0.655053 0.366705 -0.776511
0.414627 0.318484 -0.593049
0.38359 0.107498 -0.373412
0.585061 0.398759 -0.719283
0.268033 -0.0256175 0.456123
0.181983 0.017992 0.357847
0.387178 0.0331389 0.610079
0.381561 -0.0493547 0.214462
0.417657 0.0329719 0.191413
0.337314 -0.0424126 0.554729
0.367645 -0.043519 0.203896
0.412795 -0.00203519 0.394698
0.263804 -0.0255403 0.441046
0.596391 -0.303473 0.772
0.670013 -0.215586 0.619594
0.43916 -0.032051 0.165874
0.266825 -0.154441 0.957806
0.368262 -0.0487203 0.210808
0.206454 0.0714163 0.392055
0.204271 0.0129199 0.37441
0.402093 -0.0622796 0.251685
0.466622 -0.0478072 0.568109
0.389621 -0.00106664 0.380662
0.443219 -0.00371948 0.436225
0.639603 -0.0327857 0.501662
0.441665 -0.000663671 0.452648
0.386355 -0.050953 0.222997
0.233717 -0.0258536 0.437874
0.151003 -0.0719035 0.309593
0.436228 -0.0933028 0.638874
0.427836 -0.0639404 0.258224
0.190056 0.0358961 0.34162
0.309331 -0.137299 0.740798
0.351262 -0.0206259 0.467432
0.288087 0.0431203 0.533584
0.318515 -0.0565477 0.557253
0.691842 -0.247342 0.644467
0.173369 -0.160848 0.493565
0.303191 -0.222965 0.678921
0.280795 -0.188574 0.618604
0.0679332 -0.0442137 0.270993
-0.00087333 -0.0425321 0.187886
0.0733178 -0.0882808 0.26832
-0.0991295 -0.0542466 0.235417
-0.00879514 -0.0115022 0.172135
0.0286026 -0.0737376 0.21357
0.00460384 -0.0577533 0.199781
0.0194934 -0.116276 0.256199
-0.137042 -0.08271 0.24005
-0.0612416 -0.104927 0.327817
0.0720256 -0.0663214 0.268148
0.166487 0.0961372 0.324587
0.0782106 -0.083656 0.25969
0.0824255 -0.0894955 0.277728
0.332123 -0.0638817 0.592487
0.210604 0.0286094 0.367624
0.597067 -0.230956 0.770229
0.21809 -0.329037 0.718112
0.755805 -0.288797 0.437056
0.153091 -0.00267772 0.306152
0.179115 0.0243731 0.351732
0.0492133 -0.0790016 0.247037
-0.128353 -0.0957354 0.271486
0.0248117 -0.0665041 0.191316
-0.115336 -0.0976815 0.280688
0.0502832 -0.0366158 0.253581
-0.140314 -0.100813 0.26814
-0.0207166 -0.0763225 0.204702
0.0107596 -0.0403313 0.200034
0.0283526 -0.0752361 0.245272
0.486562 -0.0920789 0.110375
0.489729 -0.0905569 0.10541
0.202456 0.0239347 0.365363
0.207525 0.0768128 0.360449
0.417898 0.0404217 0.199701
0.207371 0.0254783 0.372569
0.47921 -0.0545564 0.133273
0.49739 -0.0700593 0.111253
0.551864 -0.0623511 0.0514321
-0.212776 -0.153161 0.344088
-0.0909237 -0.107293 0.30536
-0.0943239 -0.106692 0.297728
-0.121042 -0.135092 0.326062
0.0497849 -0.0357118 0.251399
0.0656334 -0.0429154 0.264765
0.0373381 -0.0172906 0.228117
0.149599 0.0915733 0.3028
0.0891288 -0.0729966 0.293025
0.171451 -0.0766303 0.326353
0.082147 -0.0440545 0.284643
0.205164 0.0107696 0.367039
0.0849533 -0.0318638 0.275149
0.0865153 -0.0344075 0.289585
0.159267 -0.0813241 0.325946
0.172828 -0.0865522 0.339141
0.0811343 -0.0199974 0.292909
0.185683 0.0183162 0.342932
0.0768563 -0.0305031 0.277066
0.0344402 -0.0744878 0.216135
0.0113593 -0.0904867 0.238956
0.0353406 -0.0727819 0.211258
0.0365796 -0.0698839 0.218657
0.0328693 -0.0808897 0.271111
0.52275 0.143067 -0.20132
0.553572 0.0809604 -0.213969
0.158335 -0.171957 0.550278
0.35281 0.041328 0.547191
0.135928 -0.0729558 0.310982
0.184545 -0.087997 0.355804
0.120231 0.0249246 0.288599
0.195225 -0.0886586 0.370123
0.165067 -0.161087 0.51808
0.141582 -0.187275 0.534522
0.164742 -0.0812896 0.328616
0.165504 -0.0735746 0.315886
0.206678 -0.0997121 0.44097
0.16481 0.0285297 0.34524
0.231389 -0.00394966 0.396764
0.401697 0.0371314 0.642705
0.402617 -0.0304016 0.497934
0.32383 0.0763389 0.446846
0.27355 0.0870941 0.375581
0.305734 -0.378501 0.852334
-0.0124878 -0.0147209 0.0903159
-0.151729 -0.0950949 0.248249
0.0114209 -0.148761 0.408774
0.0476785 -0.0758538 0.237919
0.0324867 -0.0686153 0.251147
-0.0194103 -0.0229777 0.175856
-0.0100977 -0.0585923 0.166307
-0.114793 -0.094016 0.271967
0.0304577 -0.0718129 0.222416
0.0350633 -0.0664861 0.217157
0.128615 -0.0697344 0.286472
0.067596 -0.044011 0.273424
-0.115197 -0.0762481 0.217149
0.0236231 -0.0669734 0.220891
-0.112503 -0.120624 0.27802
-0.0649438 -0.136702 0.324342
-0.156712 -0.170213 0.392901
0.411613 -0.0286498 0.500767
0.656455 -0.157667 0.685699
0.26141 0.0255154 0.438725
0.703645 -0.155981 0.843419
0.564951 -0.234856 0.75528
0.641197 -0.244226 0.610001
0.622825 -0.264055 0.678594
0.567556 -0.259562 0.677678
0.64462 -0.240304 0.625013
0.0581903 -0.062506 0.282854
-0.0175956 -0.0303542 0.166507
-0.0196376 -0.0232669 0.174694
-0.145897 -0.0868596 0.254831
-0.147439 -0.0821643 0.252292
0.0264025 -0.048786 0.214661
-0.0904035 -0.102611 0.302593
0.0710354 -0.0902919 0.263132
0.333059 -0.0653792 0.556214
0.658248 -0.111845 0.854467
0.0447641 -0.0512791 0.206858
0.030703 -0.076557 0.219275
0.049223 -0.0844383 0.245817
0.0588848 -0.0420474 0.285841
0.082944 -0.0443808 0.316509
-0.0211435 -0.0332635 0.16395
-0.010603 -0.0592266 0.16759
0.0262622 -0.0668113 0.202625
-0.0108127 -0.0593612 0.169597
0.0314563 -0.0316803 0.245261
0.0438584 -0.0384053 0.249512
0.0695024 -0.0624009 0.270822
0.0732912 -0.031104 0.268724
0.0736035 -0.0617432 0.270539
0.0573747 -0.0246072 0.229645
0.0708776 -0.0649618 0.268562
0.0904289 -0.0379514 0.285895
0.0227945 -0.0491047 0.213087
0.0478006 -0.0751212 0.2375
-0.0210839 -0.0331977 0.164034
-0.010065 -0.011293 0.174296
-0.0214484 -0.0337315 0.166981
0.00101757 -0.0145188 0.148192
0.0548364 -0.079423 0.244238
0.0673045 -0.0605388 0.271791
0.0697917 -0.0841518 0.26412
0.000232236 -0.0367869 0.184268
-0.00906821 -0.0113331 0.182337
0.623905 0.148405 -0.0408414
0.570838 0.0534405 0.0646756
0.588255 0.163714 -0.0105779
0.624909 0.148232 -0.041342
0.535792 -0.0172797 0.0833313
0.556727 -0.0131798 0.0656268
0.551672 0.134209 -0.0227483
0.581717 0.199473 -0.0131133
0.575529 0.0709793 0.0598265
0.576888 0.0743464 0.0694023
0.564572 0.153424 -0.00216901
0.600468 0.0556932 0.039651
0.642205 0.0853316 0.0374584
0.588594 -0.0136018 0.0452896
0.648108 0.0839537 0.0146925
0.590915 0.0500647 0.058526
0.557448 0.170189 -0.146056
0.563964 0.175592 -0.134306
0.074064 -0.064027 0.324581
0.065447 -0.0668933 0.264234
0.0698589 -0.0907249 0.264961
-0.1084 -0.0964903 0.273921
0.1058 -0.0799887 0.342019
0.0776838 -0.0671254 0.307558
-0.10046 -0.0274671 0.259016
-0.133443 -0.105866 0.338653
-0.0765527 -0.103694 0.315179
-0.119187 -0.0874767 0.268303
-0.115038 -0.0870162 0.265906
-0.11522 -0.0894939 0.276291
-0.116389 -0.0954002 0.272399
-0.172524 -0.13224 0.289105
-0.0221099 -0.0308799 0.168697
0.277491 -0.300207 0.691674
-0.101703 -0.131117 0.316481
0.0864762 -0.035265 0.285612
0.0290156 -0.0220192 0.223804
0.0367072 -0.0288491 0.226913
0.0329417 -0.0213689 0.225154
0.0807816 -0.0438071 0.277154
0.035773 -0.100197 0.304833
-0.10677 -0.13199 0.313494
0.050306 -0.0195245 0.245334
0.0789515 -0.0967041 0.319511
0.0544054 -0.0668451 0.265743
0.0538017 -0.051309 0.296474
0.0781067 -0.0277196 0.279733
-0.0783654 -0.106043 0.320549
-0.117721 -0.0877149 0.272529
-0.114083 -0.0926733 0.277387
-0.108397 -0.133393 0.29754
-0.532406 -0.927497 2.49673
-0.114807 -0.148002 0.294227
-0.214878 -0.370334 0.897724
-0.0755684 -0.104754 0.31096
0.380697 -0.0615779 0.577015
0.351039 -0.0632253 0.54423
-0.0262412 -0.0190467 0.182137
0.0596126 -0.0739242 0.297002
-0.0948991 -0.0196271 0.242333
-0.0961291 -0.0250997 0.257154
-0.129825 -0.112557 0.268247
0.0497495 -0.0309152 0.246545
-0.156129 -0.0978904 0.256114
-0.127972 -0.111385 0.271521
0.328133 -0.0604135 0.521938
-0.0921389 -0.0473356 0.246761
-0.130106 -0.0979443 0.278658
0.0277306 -0.0673232 0.223163
0.0466306 -0.0816796 0.236092
-0.00961049 -0.0587007 0.166447
0.0103402 -0.0390703 0.185222
-0.000346704 -0.0118364 0.193308
-0.0455428 -0.0321441 0.202343
-0.0929915 -0.110517 0.312123
-0.129193 -0.101206 0.289093
0.0660529 -0.0667437 0.262139
-0.0125509 -0.0212371 0.156085
-0.147754 -0.0874846 0.247106
-0.067357 -0.109206 0.327889
0.0968547 -0.0785017 0.330517
-0.131253 -0.0784515 0.233179
-0.0776093 -0.103867 0.309997
-0.0649426 -0.106613 0.324693
0.0346274 -0.0694629 0.219141
-0.0172757 -0.0311841 0.162035
0.0670231 -0.0820486 0.257296
0.0700804 -0.0428735 0.270315
-0.00204605 -0.0373289 0.206151
-0.0852814 -0.0511213 0.222346
0.082804 -0.0212431 0.279875
0.0713246 -0.0872296 0.259746
-0.0351138 -0.00758066 0.186515
0.0554601 -0.0436457 0.295643
0.0458365 -0.0322727 0.243711
0.0754932 -0.0427612 0.274297
0.0696583 -0.043058 0.267011
0.0822618 -0.030297 0.27988
0.0789886 -0.0833773 0.265605
0.0293473 -0.0324131 0.236086
0.0749173 -0.089027 0.277568
0.0815021 -0.0402367 0.2772
0.0791122 -0.0280822 0.287533
0.0475397 -0.0379703 0.253294
0.0330286 -0.0233014 0.226396
-0.123294 -0.0836288 0.239313
-0.11773 -0.092347 0.274009
0.63126 0.13237 -0.121291
0.676692 0.146024 -0.223397
0.590467 0.159986 -0.00859707
0.564939 0.0669654 0.0713706
0.594086 0.154925 -0.127894
0.678903 0.151103 -0.223301
0.651817 0.15034 -0.0856081
0.659055 0.198601 -0.239098
0.742336 0.127409 -0.147916
0.546187 0.102766 -0.217922
0.54775 0.103122 -0.217102
0.619827 0.147312 -0.102189
-0.011443 -0.00236489 0.0669471
0.309939 -0.0492357 0.479684
-0.105728 -0.1236 0.29107
-0.0187618 -0.0266819 0.171235
-0.0186515 -0.0225005 0.174067
0.0304764 -0.070446 0.218076
0.630058 -0.222472 0.599793
0.67448 -0.181017 0.711339
0.595608 -0.225195 0.770606
0.359573 0.0523846 0.170015
0.124011 -0.0667611 0.325913
0.149447 -0.0679682 0.299595
0.411822 -0.0693733 0.602196
0.397066 -0.0822413 0.637777
0.43155 -0.0837745 0.705658
0.325436 -0.0451988 0.512265
0.367889 -0.0735584 0.556139
0.452721 -0.109616 0.811881
0.0712136 -0.0662349 0.270285
-0.040853 -0.0343655 0.206331
0.0840847 -0.0320058 0.281131
-0.0204457 -0.0286878 0.167455
0.0210829 -0.00761179 0.0386213
0.0267929 -0.00310145 0.032629
0.0205891 -0.00488372 0.0375885
0.0301111 -0.00458848 0.0326052
-0.114518 -0.0836144 0.253707
-0.0205666 -0.139849 0.360433
-0.152116 -0.0846694 0.255025
-0.0992552 -0.106976 0.299396
-0.112523 -0.123662 0.286085
-0.0065793 -0.00648796 0.187827
-0.0189098 -0.026449 0.171825
-0.0108628 -0.0321949 0.174067
-0.175746 -0.150517 0.293351
-0.310666 -0.223933 0.466549
-0.11888 -0.0846138 0.268493
-0.149632 -0.118815 0.248604
0.571961 0.15566 -0.147972
0.538861 0.17267 -0.24542
0.549318 0.121602 -0.214127
0.496381 0.177955 -0.20303
0.546068 0.170833 -0.242861
0.546863 0.1279 -0.211854
0.572719 0.161458 -0.151754
0.493026 0.141445 -0.149936
0.552165 0.0737352 -0.219036
0.545632 0.131769 -0.210438
0.566345 0.183195 -0.162007
0.51552 0.139154 -0.196093
0.55175 0.0734312 -0.218984
0.570265 0.0683856 0.0597686
0.551462 0.10408 -0.206128
-0.151134 -0.086784 0.254682
-0.146409 -0.0955292 0.281548
0.0263751 -0.0650735 0.212953
-0.157994 -0.131169 0.24655
-0.169391 -0.137251 0.257441
-0.13952 -0.0982932 0.259015
0.0144577 -0.0592312 0.255854
-0.0187005 -0.0516686 0.28709
-0.0187005 -0.0516686 0.28709
-0.0607013 -0.129337 0.337881
-0.106264 -0.105944 0.292872
-0.0714484 -0.119157 0.326269
-0.149386 -0.0961667 0.249152
-0.111465 -0.0792729 0.17322
-0.00293975 -0.0605385 0.212697
0.374123 -0.242351 0.638289
-0.158267 -0.0907694 0.233443
-0.129747 -0.097029 0.281999
0.368683 -0.31014 0.679016
-0.170996 -0.0890448 0.229961
-0.131114 -0.109885 0.264657
-0.137912 -0.0978227 0.267086
-0.0724702 -0.118097 0.327611
0.41049 -0.0856186 0.617314
0.331913 -0.0620987 0.532129
0.488808 0.145645 -0.153672
0.588249 0.204427 -0.0112732
0.561044 0.170673 -0.0124791
0.495438 0.14522 -0.158733
0.553663 0.167054 -0.0147126
0.481574 0.169329 -0.171964
0.460299 0.149355 -0.110006
0.5662 0.17101 -0.0223649
0.626139 0.144956 -0.100203
0.723754 0.218271 -0.0630754
0.627748 0.149475 -0.111053
0.563695 0.174555 -0.025783
0.582743 0.165291 -0.00102126
0.594602 0.129249 -0.0761794
0.58905 0.110253 -0.0850199
0.553527 0.204722 -0.0710291
0.589344 0.127096 -0.079089
0.637485 0.138197 -0.0718871
0.618363 0.138587 -0.138685
0.559847 0.175306 -0.0275555
0.567964 0.164653 -0.137555
0.582847 0.168352 -0.00396107
0.545729 0.0878853 -0.22557
0.547454 0.130946 -0.205556
0.545568 0.0923307 -0.220321
0.73599 0.125183 -0.14912
0.548135 0.0867252 -0.22908
0.542735 0.172913 -0.241338
0.677705 0.118918 -0.214276
0.662446 7.75797e-05 -0.0652481
0.623407 0.144201 -0.146862
0.540909 0.131878 -0.198594
0.0496113 -0.0598534 0.240905
0.0711687 -0.0637582 0.266451
-0.0107372 -0.0290914 0.166828
0.0246362 -0.0641794 0.208933
0.0256782 -0.0590057 0.244773
-0.0526093 -0.0271964 0.198905
0.0537162 -0.061016 0.251649
0.0224835 -0.0481035 0.210775
-0.0249824 -0.0248539 0.175617
0.48958 -0.118918 0.860746
0.372997 -0.360651 0.752117
0.394241 -0.349209 0.744464
0.392599 -0.0667179 0.654604
0.419054 -0.0903765 0.618444
0.468589 -0.383525 0.783154
0.279595 -0.296446 0.699595
0.139834 -0.201739 0.535084
-0.0099622 -0.0250008 0.162789
-0.00737255 -0.0101507 0.183393
-0.0176936 -0.025853 0.158752
-0.0920508 -0.0476484 0.246181
0.401505 -0.24383 0.674107
0.567542 0.0661343 0.0724593
0.5853 0.168432 -0.00892987
0.582338 0.159181 -0.00559921
0.601902 0.12999 -0.0759583
0.609123 0.142838 -0.0926264
0.541796 0.131723 -0.19707
0.55297 0.0765878 -0.217201
0.677597 0.146666 -0.224374
0.561423 0.126797 -0.202328
0.54489 0.088562 -0.22108
0.0930431 -0.00394142 0.0827975
0.000962204 -0.0161694 0.155547
0.0398593 -0.00434044 0.0315066
-0.0101745 -0.00205439 0.0624684
0.02888 -0.00346197 0.0316431
0.028371 -0.00355958 0.0321641
-0.158589 -0.1333 0.269156
-0.151361 -0.114665 0.24639
-0.181351 -0.14149 0.270498
0.0312509 -0.0484412 0.218929
0.0850973 -0.00465796 0.0758557
0.00545295 -0.0600744 0.192846
-0.00964548 -0.0209184 0.168056
-0.0203392 -0.0314147 0.161831
-0.0111919 -0.0327894 0.170589
0.0344992 -0.0691302 0.2166
-0.0880091 -0.0247283 0.228678
-0.000345337 0.00167839 0.16508
-0.153582 -0.100216 0.296326
0.635434 -0.234555 0.70327
-0.145125 -0.0896226 0.238646
-0.0996962 -0.104679 0.293225
-0.0718172 -0.134016 0.334289
-0.108776 -0.134037 0.306459
0.121562 -0.058651 0.264406
0.224921 -0.0305384 0.404224
0.244107 -0.0341353 0.433116
0.106536 -0.057265 0.278517
0.126259 -0.072935 0.310921
0.0933266 -0.0796401 0.321323
-0.0812348 -0.101447 0.299456
0.0571548 -0.0754089 0.30588
0.153677 -0.0854354 0.368879
0.137262 -0.0815725 0.353971
0.388186 0.045816 0.194229
0.398644 -0.0505284 0.22869
0.585298 -0.276126 0.762547
0.569299 -0.213506 0.731093
0.485761 -0.357832 0.738333
0.698034 -0.26361 0.670483
0.669464 -0.0308546 0.52897
-0.145388 -0.0846742 0.250396
0.0803615 -0.0672637 0.272366
-0.090872 -0.046664 0.245349
-0.111562 -0.0954938 0.273723
-0.118022 -0.0887415 0.26327
-0.147113 -0.0818092 0.243316
-0.135337 -0.084662 0.252844
0.0746543 -0.0376015 0.279528
0.0676198 -0.0439709 0.26804
0.0834602 -0.0204325 0.281584
-0.0823163 -0.0115436 0.210243
0.0767095 -0.0301899 0.27919
-0.0116017 0.0016228 0.150366
0.0305084 -0.0239377 0.224034
-0.0520739 -0.00684667 0.1862
-0.0730388 -0.0124463 0.209744
0.0553133 -0.0434225 0.296106
0.0836414 -0.0671622 0.277287
0.0324515 -0.0301279 0.226257
0.0829969 -0.0880314 0.274952
0.012708 -0.114451 0.253268
0.00935186 -0.117646 0.262162
